# .PCD v0.7 - Point Cloud Data file format
VERSION 0.7
FIELDS x y z rgb
SIZE 4 4 4 4
TYPE F F F F
COUNT 1 1 1 1
WIDTH 837
HEIGHT 1
VIEWPOINT 0 0 0 1 0 0 0
POINTS 837
DATA ascii
-0.009341812965 -0.3133955253 -0.2476920064 2.225624197e-38
0.05021314556 0.5006299078 0.09238975676 2.225624197e-38
-0.1553617113 -0.1497616393 -0.1801370534 2.225624197e-38
0.3831679137 -0.4959343982 -0.2522800032 2.225624197e-38
0.0192791671 -0.6442022949 -0.09033411598 2.225624197e-38
-0.08959275707 -0.4909174016 0.09834175261 2.225624197e-38
0.02763316128 -0.6508052903 0.003014819004 2.225624197e-38
0.009298174053 -0.6259883076 -0.1074001041 2.225624197e-38
0.2454010096 -0.01670973192 0.3679945648 2.225624197e-38
0.2915009775 -0.3987574658 -0.07692512532 2.225624197e-38
0.01869816751 0.6612887959 -0.02054516459 2.225624197e-38
-0.06706077277 0.1565261474 -0.233868016 2.225624197e-38
-0.06472277439 0.1847781278 0.3996295428 2.225624197e-38
-0.01255581073 -0.7116262479 -0.1410270807 2.225624197e-38
0.1523670744 0.2708310678 0.1088327453 2.225624197e-38
0.02073016609 0.01475024617 0.3879895509 2.225624197e-38
0.2458850093 -0.4949133989 -0.04845214515 2.225624197e-38
0.2798779856 0.2225911014 0.1640817068 2.225624197e-38
-0.1581467093 0.2462860849 -0.1932110443 2.225624197e-38
-0.1045017467 -0.125764656 -0.0196661652 2.225624197e-38
-0.09365975424 -0.4656054193 0.1054367477 2.225624197e-38
0.0257391626 0.01472024619 -0.2538320021 2.225624197e-38
-0.3806855543 0.230433096 -0.2205850253 2.225624197e-38
-0.03208479713 -0.1449246426 0.3911035487 2.225624197e-38
0.0932211156 -0.4349384406 0.1584287108 2.225624197e-38
0.2179400287 -0.2883145428 -0.07141912916 2.225624197e-38
0.001246179661 0.5234828919 -0.104727106 2.225624197e-38
0.01116917275 0.3196530338 0.2486986479 2.225624197e-38
0.1289540907 0.3385650206 -0.1383090826 2.225624197e-38
0.2369550155 -0.3372285087 0.1038057488 2.225624197e-38
-0.1947576838 0.3909149842 0.1475137184 2.225624197e-38
-0.2092876737 0.1249691694 -0.1637740648 2.225624197e-38
0.3765579183 0.01541624571 -0.02392416223 2.225624197e-38
0.3084669657 0.1057021828 0.096353754 2.225624197e-38
0.06951813211 0.2582960766 0.1704927024 2.225624197e-38
-0.04589678751 -0.4251974474 0.1993496823 2.225624197e-38
0.2542980034 -0.3508894992 -0.1192100959 2.225624197e-38
0.3187229585 -0.1488796399 -0.1065841047 2.225624197e-38
0.003522178076 0.04628822421 0.01566981019 2.225624197e-38
-0.1016847487 0.3972669798 -0.1188660961 2.225624197e-38
0.1991640418 0.3248770302 0.2218486666 2.225624197e-38
0.1509130754 -0.03914671629 -0.06413813423 2.225624197e-38
0.3269839528 0.3269850287 -0.08550011935 2.225624197e-38
-0.2697356316 -0.3060625304 -0.1610440667 2.225624197e-38
0.2157510303 0.01454824631 0.3324925895 2.225624197e-38
0.002426178839 0.2099501102 0.2336136584 2.225624197e-38
-0.3613685678 0.1430671568 -0.06141513612 2.225624197e-38
0.1287560909 0.4266339593 0.07338277 2.225624197e-38
-0.09103875607 0.4862199178 0.0554337825 2.225624197e-38
-0.1019437485 0.3102020404 -0.06772613173 2.225624197e-38
-0.1152827392 0.05293721958 0.1406357232 2.225624197e-38
0.1795590555 -0.06520669814 0.07646776785 2.225624197e-38
0.2787239864 0.09514619018 -0.1387430823 2.225624197e-38
-0.01975980571 -0.4782714105 0.2264196634 2.225624197e-38
0.06395713598 -0.2560105653 -0.03267015614 2.225624197e-38
0.06189713742 0.2052521135 0.169625703 2.225624197e-38
0.2114140333 -0.1790266189 0.2180056693 2.225624197e-38
-0.07262576889 -0.3765864813 -0.08290412116 2.225624197e-38
-0.09913775043 0.2987640484 0.01418081123 2.225624197e-38
0.2025930394 -0.5350243709 -0.02935715845 2.225624197e-38
-0.1189277366 0.3410070189 0.142253722 2.225624197e-38
-0.2503816451 0.04499322511 0.2768436283 2.225624197e-38
0.1872290501 -0.3116725265 -0.2028140376 2.225624197e-38
0.170139062 0.2831400592 0.1329267285 2.225624197e-38
-0.3540355729 0.05564021769 -0.004711175615 2.225624197e-38
-0.02627980117 0.07094120704 0.1013507505 2.225624197e-38
6.018048694e-05 -0.6736002744 -0.03225615643 2.225624197e-38
-0.1234647335 0.4089459716 -0.07945612356 2.225624197e-38
0.2068950364 0.1640141422 0.05088978566 2.225624197e-38
-0.1605127077 0.3441120168 -0.04558714715 2.225624197e-38
-0.224667663 0.3216580324 -0.07624912579 2.225624197e-38
0.05400214292 -0.2178195919 0.3446605811 2.225624197e-38
0.4044898988 0.1726781362 -0.01144417093 2.225624197e-38
-0.0657187737 0.3031310453 0.2636286375 2.225624197e-38
-0.1266827312 -0.356865495 0.193995686 2.225624197e-38
0.04367015011 0.5783778536 0.06655577475 2.225624197e-38
-0.03612179431 0.1443861559 0.02430380418 2.225624197e-38
0.1370780851 0.1616771438 0.1662687053 2.225624197e-38
-0.2069476753 -0.4566054255 -0.2466680071 2.225624197e-38
-0.05785677918 -0.4101824579 -0.2445960085 2.225624197e-38
0.3505049364 -0.0723016932 -0.07463812691 2.225624197e-38
-0.06789977218 0.2680490698 -0.03321815576 2.225624197e-38
0.3821569144 0.1563431476 -0.2737409882 2.225624197e-38
0.08814711914 0.1085651808 0.1259807334 2.225624197e-38
0.4521318656 0.1533301497 -0.1263480909 2.225624197e-38
-0.06631577328 0.1897521243 0.2046216786 2.225624197e-38
0.02673516191 -0.8805181303 -0.2731459887 2.225624197e-38
-0.1564327105 0.3235010311 0.3446315811 2.225624197e-38
0.2881959798 -0.01090973596 -0.1257140913 2.225624197e-38
-0.2166446686 0.2057331132 -0.1005011089 2.225624197e-38
0.1540110733 -0.3688744866 -0.04674214634 2.225624197e-38
-0.1036487473 0.3078120421 0.4230525265 2.225624197e-38
0.3999919019 0.04409822573 -0.2940559741 2.225624197e-38
0.180253055 0.2742880654 0.2051476782 2.225624197e-38
-0.1309717283 -0.08442968475 0.3166316006 2.225624197e-38
0.147152078 0.3776639934 0.1370237257 2.225624197e-38
0.2096680345 0.1599151451 -0.1681740618 2.225624197e-38
0.2712389916 0.3005110471 0.1434197212 2.225624197e-38
-0.1507207145 -0.08989568095 -0.1923670449 2.225624197e-38
-0.08224176219 -0.4440254343 0.1593767101 2.225624197e-38
-0.1928576852 0.09935918725 0.1278647321 2.225624197e-38
-0.08408476091 -0.1617746309 0.02286980518 2.225624197e-38
0.01764716824 0.1118441786 0.4521955062 2.225624197e-38
-0.1060397456 0.231790095 -0.2061280353 2.225624197e-38
0.08831111902 -0.270696555 -0.2258350216 2.225624197e-38
-0.02582780148 -0.8764011332 -0.2728909888 2.225624197e-38
0.1231010948 0.2736240659 0.007638815783 2.225624197e-38
-0.3307775891 -0.6172123137 -0.2754119871 2.225624197e-38
0.1844170521 -0.2963895371 -0.1580650688 2.225624197e-38
0.2119300329 0.1519581506 0.03775179481 2.225624197e-38
0.01464517033 0.2847670581 0.2163636704 2.225624197e-38
0.1251900933 0.2713230675 0.07333477003 2.225624197e-38
-0.2551856417 0.06523221101 -0.269806991 2.225624197e-38
0.2084440354 0.1665691404 -0.05619613976 2.225624197e-38
-0.01801480692 0.003015254345 0.3947785462 2.225624197e-38
-0.3818475535 -0.1122016654 -0.1267930906 2.225624197e-38
0.2082230355 0.2148201068 -0.04214614954 2.225624197e-38
-0.408404535 -0.08257068605 -0.03455215483 2.225624197e-38
-0.2466186477 -0.1288796538 0.2008866812 2.225624197e-38
0.2377430149 -0.04984270884 -0.1677020621 2.225624197e-38
-0.1012847489 -0.124335657 0.1074877462 2.225624197e-38
-0.2544416423 -0.3342925107 -0.08797911762 2.225624197e-38
0.3748899194 -0.190335611 -0.0007961783418 2.225624197e-38
-0.2201386662 0.1373251608 0.1033997491 2.225624197e-38
-0.1465487174 -0.6125963169 -0.1042081063 2.225624197e-38
0.3675819245 -0.6039303229 -0.2943099739 2.225624197e-38
-0.1795346944 -0.2689395562 -0.1015301082 2.225624197e-38
-0.04334978928 -0.3786094799 0.2417646527 2.225624197e-38
0.2580970008 0.3090880412 -0.08965811645 2.225624197e-38
0.1049331074 -0.285071545 0.2651416364 2.225624197e-38
-0.02510480199 0.4981369095 0.09524375477 2.225624197e-38
0.2267530226 0.08963819402 -0.1557540704 2.225624197e-38
-0.06762477237 -0.2660365583 -0.02460716176 2.225624197e-38
0.1090511046 0.5006749077 0.01110081337 2.225624197e-38
-0.1799186942 0.06700520978 0.3363825868 2.225624197e-38
-0.4438145104 0.1904311238 -0.07820312443 2.225624197e-38
-0.2811286237 -0.2625975607 0.06350577687 2.225624197e-38
-0.06495177423 -0.174466622 0.3439975815 2.225624197e-38
0.1865060506 0.2036961146 0.01560781023 2.225624197e-38
-0.2666796337 -0.3591994934 -0.2255390218 2.225624197e-38
-0.09455875361 0.3387230205 0.1592727102 2.225624197e-38
-0.09545375299 0.1156741759 0.3916515483 2.225624197e-38
-0.1979646816 0.1422401574 0.1469457188 2.225624197e-38
-0.395580544 -0.1246196568 -0.1642140645 2.225624197e-38
0.3020629702 -0.411420457 -0.05606013985 2.225624197e-38
-0.04107079087 0.3962149805 0.3321265898 2.225624197e-38
-0.2020226788 0.1396721592 0.3464705798 2.225624197e-38
-0.218869667 0.006811251702 -0.1593660679 2.225624197e-38
0.1290330907 -0.4265314465 0.13081973 2.225624197e-38
0.2944739754 -0.0002517433793 -0.2906609765 2.225624197e-38
0.2843109825 -0.1013936729 0.1741546998 2.225624197e-38
0.2616539983 0.3188240344 -0.07924312371 2.225624197e-38
-0.1779356955 0.3342870236 -0.05885613791 2.225624197e-38
-0.08660775915 0.4024289762 -0.1565890698 2.225624197e-38
-0.1124327412 -0.3530494977 -0.2615919967 2.225624197e-38
-0.0503517844 0.07155120661 -0.2419840104 2.225624197e-38
-0.2093496737 -0.6281553061 -0.2759139867 2.225624197e-38
-0.05628278027 -0.02455572645 -0.2388440126 2.225624197e-38
-0.1661877037 -0.3897134721 0.3134216028 2.225624197e-38
0.2109400336 -0.1346356498 0.2321116594 2.225624197e-38
-0.06568577372 0.5995318389 -0.01599216776 2.225624197e-38
-0.2773456263 0.1303771656 0.3054866083 2.225624197e-38
0.08909911847 -0.1354386492 0.1318167293 2.225624197e-38
-0.1593107085 0.2897460546 -0.09334511388 2.225624197e-38
0.002241178968 -0.7096452493 -0.2686029918 2.225624197e-38
0.09903511155 0.3784619929 0.3545635742 2.225624197e-38
0.2691329931 0.2337920936 -0.1634540651 2.225624197e-38
-0.2307546588 -0.1656516282 -0.1746540573 2.225624197e-38
-0.08833375795 0.197334119 0.06036277906 2.225624197e-38
0.2676239941 -0.6948502596 -0.2637079952 2.225624197e-38
0.1381220843 -0.2751385519 0.2262956635 2.225624197e-38
0.07780412634 -0.395633468 0.2171446699 2.225624197e-38
0.1588530699 -0.2831915463 -0.03700015313 2.225624197e-38
0.4075818967 0.2527480804 0.0739557696 2.225624197e-38
0.04854514672 -0.004533740397 0.1414237226 2.225624197e-38
-0.1296537292 0.2520850809 0.1544107136 2.225624197e-38
-0.2325246575 0.2181991045 -0.1526530726 2.225624197e-38
0.0589121395 0.2406460888 -0.226648021 2.225624197e-38
-0.1924926854 0.3332100244 0.03113679942 2.225624197e-38
0.1138891012 0.1880231255 0.08441676231 2.225624197e-38
-0.06964477097 -0.1683856263 0.02727180211 2.225624197e-38
0.02909316027 0.409816971 -0.2303770184 2.225624197e-38
0.4173178899 0.07632820329 -0.245397008 2.225624197e-38
0.2644809963 0.1963221197 -0.1326510865 2.225624197e-38
-0.07425476776 0.2615730743 0.2045136787 2.225624197e-38
-0.3274585914 0.2179331047 -0.2347380154 2.225624197e-38
0.1211460962 0.06954020801 0.1426307218 2.225624197e-38
0.375521919 -0.2182995915 -0.01001217192 2.225624197e-38
0.06220513721 -0.01595773244 -0.09197711484 2.225624197e-38
-0.06892477147 0.2198251033 0.03622879587 2.225624197e-38
-0.1776426957 -0.5110673876 -0.1388780822 2.225624197e-38
0.354012934 0.336567022 0.06478677598 2.225624197e-38
0.001772179295 0.2981450488 0.07151977129 2.225624197e-38
-0.04548578779 0.4048129745 0.1264097331 2.225624197e-38
0.3895509092 0.2704120681 -0.1683920616 2.225624197e-38
0.1721280606 -0.4486124311 -0.1541910715 2.225624197e-38
-0.07266576886 -0.1789216189 -0.2255120218 2.225624197e-38
0.3019679702 -0.6222193102 -0.2368830139 2.225624197e-38
0.1159400998 -0.1569386343 0.06009277925 2.225624197e-38
-0.1773876959 0.3163860361 0.1359567264 2.225624197e-38
0.3934639065 0.1440631561 -0.07117412933 2.225624197e-38
0.05829813993 -0.4518124289 -0.2376340134 2.225624197e-38
0.1039001082 -0.1603836319 0.01907480782 2.225624197e-38
-0.03338779622 -0.7427262263 -0.1798550536 2.225624197e-38
0.06497413528 0.1595111454 -0.235268015 2.225624197e-38
0.3484389379 0.02797523696 -0.3381659434 2.225624197e-38
0.00857017456 0.1417311577 0.4601235006 2.225624197e-38
-0.2029786781 0.2049511137 0.1633407073 2.225624197e-38
-0.295074614 -0.6520882894 -0.2723999892 2.225624197e-38
0.3621309283 -0.6032183234 -0.2790719845 2.225624197e-38
-0.004881816071 -0.6707452764 -0.2761169866 2.225624197e-38
0.3678739243 0.2968100497 0.0983567526 2.225624197e-38
0.348227938 -0.3965144674 -0.252622003 2.225624197e-38
0.0412441518 0.6949127725 0.0008028205445 2.225624197e-38
-0.2317636581 0.2320690948 -0.1316920872 2.225624197e-38
-0.1621857065 0.188714125 0.3790205571 2.225624197e-38
0.1229100949 0.08828719496 0.1424967219 2.225624197e-38
-0.02567980159 0.1322401643 -0.00463317567 2.225624197e-38
-0.3690685624 0.191551123 -0.2652949941 2.225624197e-38
-0.02121780469 -0.5573023554 0.09799875285 2.225624197e-38
-0.03822779285 0.4226749621 0.3923355479 2.225624197e-38
0.1886630491 0.3240720307 0.1667867049 2.225624197e-38
0.05231514409 0.2821390599 0.09443575533 2.225624197e-38
0.1822980536 -0.3211185199 -0.2495590051 2.225624197e-38
-0.4225255252 0.2594480757 -0.004935175459 2.225624197e-38
-0.2485216464 -0.4770304113 -0.04012615095 2.225624197e-38
-0.1626047062 -0.3093345281 -0.1731730583 2.225624197e-38
0.2095940346 0.2069861123 0.1931646866 2.225624197e-38
0.1165730993 -0.2647025592 -0.03007815795 2.225624197e-38
0.1618810678 -0.1173856618 -0.1880650479 2.225624197e-38
-0.1649227046 -0.5718223453 -0.1652340638 2.225624197e-38
-0.009048813169 0.4507489425 -0.1695790608 2.225624197e-38
0.07884912561 0.2314760952 0.3866865518 2.225624197e-38
0.01269517169 -0.6763852725 -0.2768879861 2.225624197e-38
0.1758090581 0.3358550225 -0.01601716774 2.225624197e-38
-0.03452679542 -0.1109246663 0.1449237202 2.225624197e-38
-0.1379037234 -0.2067375996 -0.195181043 2.225624197e-38
0.1815670541 0.2912730536 -0.1079751037 2.225624197e-38
0.03470715636 0.6835917803 0.03871579414 2.225624197e-38
0.005310176831 0.2434040869 0.08829675961 2.225624197e-38
-0.1582057093 0.3432970174 0.3493765778 2.225624197e-38
0.3150959611 -0.2298085835 0.04755278798 2.225624197e-38
0.2207840268 0.1331491637 0.1435947211 2.225624197e-38
-0.2751616278 -0.1670836272 0.0004538207876 2.225624197e-38
0.4597258603 0.2101111101 -0.0465171465 2.225624197e-38
-0.049487785 -0.6101653186 -0.1200490953 2.225624197e-38
0.04630914828 0.2328550943 0.2951586155 2.225624197e-38
-0.1806136937 0.2148971068 0.2000666818 2.225624197e-38
0.1560930718 0.3285530276 0.3351905877 2.225624197e-38
0.08516012122 0.5595528667 0.03053579984 2.225624197e-38
0.3297629509 -0.1294756534 -0.09821511049 2.225624197e-38
0.1310100893 0.2212091024 -0.1964720421 2.225624197e-38
0.3268289529 -0.07634169039 0.4431265125 2.225624197e-38
0.2727479906 -0.001533742486 0.2550276435 2.225624197e-38
0.07708212684 0.2142091073 0.1029967494 2.225624197e-38
-0.3304415893 -0.02827372386 0.1745196996 2.225624197e-38
-0.3146966003 0.3419630183 -0.02302216286 2.225624197e-38
-0.144199719 -0.5573123554 -0.1231210931 2.225624197e-38
-0.02072880503 0.3427920177 -0.2306800182 2.225624197e-38
-0.1134607404 -0.4696044165 0.07828976658 2.225624197e-38
-0.115559739 -0.3514524988 0.275897629 2.225624197e-38
0.3046309684 0.2395560896 0.1559057125 2.225624197e-38
-0.08665775912 -0.4505204298 0.125052734 2.225624197e-38
0.2829659835 -0.2515705683 0.08522576175 2.225624197e-38
0.3537939341 0.00843625057 0.09221275688 2.225624197e-38
0.4436578715 0.1754481343 -0.2369660139 2.225624197e-38
0.2169990294 -0.2033796019 0.1741056998 2.225624197e-38
0.2345790172 -0.3502824996 0.07020977221 2.225624197e-38
-0.2326956574 -0.3706164854 -0.1408400808 2.225624197e-38
0.05998213875 0.3347950233 0.4387425155 2.225624197e-38
0.2016010401 0.3331650244 -0.05594013994 2.225624197e-38
0.2719529911 0.1440091561 -0.1400400814 2.225624197e-38
0.1843980521 -0.1255036561 -0.183609051 2.225624197e-38
0.2001730411 -0.2218385891 0.2037176792 2.225624197e-38
0.1130121018 0.01006424944 0.1452767199 2.225624197e-38
0.3423769421 -0.02019872949 0.168179704 2.225624197e-38
-0.3248135932 0.1293431664 0.1067927467 2.225624197e-38
-0.2329676572 0.3053330438 -0.09155911513 2.225624197e-38
-0.1005747494 -0.5204113811 -0.1928300446 2.225624197e-38
0.07630512739 -0.02348972719 0.3646315672 2.225624197e-38
-0.1494957154 0.3209260329 -0.01771416656 2.225624197e-38
-0.1463637175 0.2297110965 0.2190826685 2.225624197e-38
0.2789799862 -0.4156104541 -0.0791121238 2.225624197e-38
0.282251984 -0.6111623179 -0.3108349624 2.225624197e-38
0.1782400564 -0.2535915669 -0.2251130221 2.225624197e-38
0.2365020158 0.3399920197 -0.05543414029 2.225624197e-38
0.1224490952 -0.08436868479 0.3199065983 2.225624197e-38
-0.06173777647 -0.2550755659 -0.03331615569 2.225624197e-38
-0.03497279511 0.4452809463 0.1098387446 2.225624197e-38
-0.1249617324 -0.0745966916 0.3124816035 2.225624197e-38
0.0187001675 -0.1643596291 0.08157176429 2.225624197e-38
-0.03142979758 0.4056719739 0.1343057276 2.225624197e-38
-0.1318697276 -0.3697174861 0.1641297068 2.225624197e-38
0.001408179548 0.3172730355 0.2915296181 2.225624197e-38
-0.1049637464 0.2146511069 0.2357486569 2.225624197e-38
0.2291990209 0.2105921098 -0.1135290998 2.225624197e-38
0.2289140211 -0.04554971183 0.2549426435 2.225624197e-38
0.211807033 0.3239730308 -0.04755614578 2.225624197e-38
-0.08341676137 -0.005168739955 0.3594005708 2.225624197e-38
0.04134215174 0.6919307745 -0.01307016979 2.225624197e-38
-0.2200976662 -0.2377855779 0.1704957024 2.225624197e-38
0.2667489947 0.0622332131 0.09067475795 2.225624197e-38
-0.1709737004 0.3561220084 0.2231396657 2.225624197e-38
-0.02471380226 -0.07864668878 0.1511247159 2.225624197e-38
-0.03941879202 -0.0743156918 0.3882905507 2.225624197e-38
0.07295112972 -0.6217173106 -0.2331070165 2.225624197e-38
0.3963259045 0.2773690633 -0.1539330717 2.225624197e-38
0.02509216305 0.2954590507 -0.2352030151 2.225624197e-38
0.1437480804 0.3325020249 -0.1172070973 2.225624197e-38
-0.1303727287 0.1932551218 -0.02950815835 2.225624197e-38
-0.2624426367 0.2527960804 0.2196526681 2.225624197e-38
0.07285412979 -0.282197547 -0.2298090188 2.225624197e-38
0.0693891322 0.3549450092 0.1648537063 2.225624197e-38
-0.04383278894 -0.07151869374 -0.08674111848 2.225624197e-38
-0.1258587318 -0.09526067721 0.3180315996 2.225624197e-38
0.004289177542 0.4255089601 0.1388437244 2.225624197e-38
-0.2429446503 -0.1935406088 -0.1163840978 2.225624197e-38
0.2431690112 0.1953341204 -0.08655111862 2.225624197e-38
0.07191813044 0.2348410929 -0.2215320246 2.225624197e-38
0.0111001728 -0.1303156528 -0.03904015171 2.225624197e-38
-0.2587966392 -0.1780326196 -0.1178710968 2.225624197e-38
-0.2566076408 0.04264022675 0.0292908007 2.225624197e-38
-0.3099566036 -0.6019703243 -0.2390200124 2.225624197e-38
0.07064313133 -0.05282070677 0.3738375607 2.225624197e-38
0.2414840123 -0.3986154659 -0.1143090993 2.225624197e-38
-0.362434567 0.03836222973 -0.3218059548 2.225624197e-38
0.01371917097 0.1550701484 -0.2593759983 2.225624197e-38
-0.1819566927 0.2255070994 0.006818816355 2.225624197e-38
0.2353530166 -0.2906515411 -0.1652600638 2.225624197e-38
-0.1224567342 -0.6032693234 -0.02257216318 2.225624197e-38
0.2053670375 0.3014600465 -0.07376512752 2.225624197e-38
-0.1725176993 0.1813851301 0.179696696 2.225624197e-38
-0.1876636888 0.3286150276 0.06371477673 2.225624197e-38
-0.1656997041 -0.510568388 -0.1698370606 2.225624197e-38
0.03270815775 0.2929410524 -0.0849971197 2.225624197e-38
-0.3712245609 -0.08144168683 -0.06837013128 2.225624197e-38
-0.2245816631 0.1979211186 0.1524527149 2.225624197e-38
0.001905179202 -0.5725313448 -0.2601879977 2.225624197e-38
0.01571216959 0.3748269954 -0.1585120685 2.225624197e-38
0.3949259055 0.3018250462 -0.09297811414 2.225624197e-38
0.21616503 -0.1883356124 -0.2019600382 2.225624197e-38
-0.3903425476 0.04146222757 -0.00637017446 2.225624197e-38
-0.1932846849 0.3017250463 0.2132036726 2.225624197e-38
-0.2619006371 -0.2029586022 0.0213918062 2.225624197e-38
-0.1308587283 -0.2629495604 -0.04104615031 2.225624197e-38
-0.01614980822 0.4114429699 0.3398795844 2.225624197e-38
-0.2296786595 -0.3879644734 -0.2460130076 2.225624197e-38
0.2202430271 0.3563730082 0.09574875442 2.225624197e-38
0.2084400354 -0.3499874998 -0.1988810404 2.225624197e-38
0.02535516287 -0.09479967753 0.3895335498 2.225624197e-38
0.2244510242 0.3282160279 -0.06767913176 2.225624197e-38
-0.2601706383 -0.3222275191 0.06966877258 2.225624197e-38
-0.0700257707 -0.3447065035 0.2698196332 2.225624197e-38
-0.4413795121 0.1526171502 -0.1581480688 2.225624197e-38
0.3567279321 0.3304590263 -0.04826514528 2.225624197e-38
0.2888749793 -0.3474975015 -0.09299811413 2.225624197e-38
-0.1296247292 -0.6189243125 -0.05991113717 2.225624197e-38
-0.09814675112 0.3288080274 0.291606618 2.225624197e-38
0.2380420147 0.2326540944 -0.1006401088 2.225624197e-38
0.1266910923 -0.07325169254 0.313130603 2.225624197e-38
-0.0220728041 0.305057044 0.2642096371 2.225624197e-38
0.105604107 0.1128141779 -0.2107460321 2.225624197e-38
0.4291348817 0.284987058 0.01272281224 2.225624197e-38
0.08134112388 -0.5631453513 -0.1844900504 2.225624197e-38
-0.441537512 0.2008871165 -0.2029480375 2.225624197e-38
0.2867659808 -0.0026627417 -0.114668099 2.225624197e-38
-0.3429895806 0.2013481162 -0.255389001 2.225624197e-38
-0.2738946287 0.09743218859 -0.02240816329 2.225624197e-38
0.4469048693 0.1079481813 -0.2522650032 2.225624197e-38
-0.2670356335 -0.6305803044 -0.3152749593 2.225624197e-38
0.2019100399 0.09943818719 0.3216185971 2.225624197e-38
0.01855316761 -0.223297588 0.3742065605 2.225624197e-38
0.07000113178 -0.5418123662 0.03343179782 2.225624197e-38
0.2301820202 0.1072331818 0.1278217321 2.225624197e-38
0.1226350951 0.3605310053 0.1260497333 2.225624197e-38
-0.2851316209 -0.2556945655 0.02227080559 2.225624197e-38
-0.0272438005 0.6646447935 -0.03680115327 2.225624197e-38
-0.3598165689 -0.5756603426 -0.3090159637 2.225624197e-38
0.05722014068 0.5065009037 -0.08841611732 2.225624197e-38
0.2158660302 0.2453890855 0.2909516185 2.225624197e-38
0.1117851027 0.3943649818 -0.1259950911 2.225624197e-38
0.1412420822 -0.04108171494 -0.1925000448 2.225624197e-38
0.3385619447 -0.4730024141 -0.310012963 2.225624197e-38
0.06964713202 0.3086890415 0.03362479769 2.225624197e-38
0.09879911172 -0.3483995009 0.2010496811 2.225624197e-38
-0.1998386803 0.2780160628 -0.1396560816 2.225624197e-38
0.3514329358 -0.3415235057 -0.02759115968 2.225624197e-38
0.2830669834 0.06828720889 -0.1451940778 2.225624197e-38
-0.2265546617 0.1424221573 0.1470007187 2.225624197e-38
-0.2513706444 -0.2197225905 0.1238927348 2.225624197e-38
0.3529619347 0.3137720379 -0.1027021074 2.225624197e-38
-0.2331596571 0.1494041524 -0.02098916428 2.225624197e-38
0.2916129774 0.1353761622 -0.1350590848 2.225624197e-38
0.3236949551 0.3095250409 0.1108117439 2.225624197e-38
0.1592640696 -0.4905144019 0.01962080744 2.225624197e-38
-0.3856345509 -0.03002772264 0.07678976762 2.225624197e-38
0.2543370034 -0.5477693621 -0.2823349823 2.225624197e-38
0.2737969898 -0.242076575 -0.1341480855 2.225624197e-38
0.2828069836 -0.5298723745 -0.2939319742 2.225624197e-38
0.2082490355 0.3018560462 -0.08563011926 2.225624197e-38
0.08117612399 0.1653621413 0.0313087993 2.225624197e-38
-0.2885786185 -0.1624396304 -0.06547913329 2.225624197e-38
-0.08098476307 -0.4327224422 -0.1367870836 2.225624197e-38
0.1036841083 -0.1169466621 -0.2133010303 2.225624197e-38
0.3852349122 0.1885961251 -0.2512170039 2.225624197e-38
0.02791516109 0.2502720821 0.05259578447 2.225624197e-38
-0.1623207064 -0.4937163997 -0.1382510826 2.225624197e-38
0.3463499393 0.3284640277 -0.07272112825 2.225624197e-38
0.2932999763 -0.6660642797 -0.2628389958 2.225624197e-38
-0.352474574 -0.1470056412 -0.006746174198 2.225624197e-38
-0.34383158 -0.01158773548 0.1655017058 2.225624197e-38
0.3811209151 0.04416122569 0.07713176738 2.225624197e-38
0.2414340124 0.1595231453 0.1088677453 2.225624197e-38
-0.0009238188277 -0.9300720958 -0.284140981 2.225624197e-38
0.01164817242 0.2248080999 0.2879656205 2.225624197e-38
0.3134919622 -0.003155741357 0.1887116897 2.225624197e-38
0.2465850088 -0.3690544865 0.03447779709 2.225624197e-38
0.1182970981 -0.1499656391 -0.2054280358 2.225624197e-38
0.2694309929 0.3084140416 -0.09641611175 2.225624197e-38
0.150150076 -0.3639364901 -0.219586026 2.225624197e-38
-0.150004715 -0.6092673192 -0.1210470946 2.225624197e-38
0.124256094 0.5287068882 0.07210677088 2.225624197e-38
-0.08867975771 -0.4520334287 -0.2190130264 2.225624197e-38
-0.02732180044 -0.668472278 -0.006865174115 2.225624197e-38
0.1781580564 0.2841960585 -0.09478911288 2.225624197e-38
0.07727512671 -0.5494753609 -0.1971750416 2.225624197e-38
0.03882115349 0.5660488622 -0.09308711406 2.225624197e-38
-0.1361707246 0.1894361245 -0.1912660457 2.225624197e-38
-0.06276177576 0.2994760479 0.05937977975 2.225624197e-38
0.3853819121 0.3026640457 0.06801277374 2.225624197e-38
0.02347316418 -0.4882694035 0.2199186679 2.225624197e-38
-0.1677777026 0.2346030931 -0.0640381343 2.225624197e-38
-0.02758580026 0.2024341155 0.2459426498 2.225624197e-38
0.01934816705 -0.04119971486 -0.2592569983 2.225624197e-38
0.234773017 -0.243516574 -0.2029130376 2.225624197e-38
0.1094771043 -0.5804473393 -0.007239173855 2.225624197e-38
0.2949539751 0.3398100198 -0.04986414417 2.225624197e-38
-0.4204525266 0.2661920711 -0.01546116813 2.225624197e-38
-0.2501656452 0.3122860389 -0.09241011454 2.225624197e-38
-0.3022766089 0.1890101248 0.1948536854 2.225624197e-38
-0.4382255143 0.2579040768 -0.08013912308 2.225624197e-38
0.3631039276 0.07073520718 0.113528742 2.225624197e-38
-0.2890026182 0.06210221319 -0.3421349406 2.225624197e-38
-0.1090337435 -0.1076346686 -0.2063680352 2.225624197e-38
-0.335227586 0.05981121479 -0.04255114926 2.225624197e-38
-0.3450565792 -0.3500724997 -0.07097812946 2.225624197e-38
-0.2607906378 -0.2723965538 0.0908877578 2.225624197e-38
-0.1502807148 0.2549980788 -0.0483821452 2.225624197e-38
-0.07853176478 -0.132860651 0.3489575781 2.225624197e-38
-0.333848587 -0.1322316515 -0.06495713366 2.225624197e-38
-0.3206585961 -0.3422335052 -0.009004172625 2.225624197e-38
0.2953749748 0.162826143 0.1691827033 2.225624197e-38
-0.2824226228 0.01305224735 -0.1439320787 2.225624197e-38
-0.2238326636 -0.615382315 -0.222441024 2.225624197e-38
-0.2295746596 -0.4224554493 -0.09037011596 2.225624197e-38
-0.2019526788 0.01655124492 -0.162083066 2.225624197e-38
-0.2069116754 0.3126780387 0.1410027229 2.225624197e-38
-0.3683945629 0.1768531333 0.03745479502 2.225624197e-38
-0.3820995534 -0.3182835219 -0.1218170941 2.225624197e-38
0.2203640271 0.2710790676 -0.09281911425 2.225624197e-38
0.1489670768 -0.1385386471 0.02046380685 2.225624197e-38
-0.03495779512 -0.4882004035 0.2021666803 2.225624197e-38
0.3777059175 -0.5304193741 -0.3321539476 2.225624197e-38
-0.299398611 -0.3091515282 -0.08446212007 2.225624197e-38
0.2686469934 0.1380451603 -0.04833614523 2.225624197e-38
-0.2985266116 0.1784111322 -0.259776998 2.225624197e-38
-0.4204215267 0.1099591799 -0.2418380105 2.225624197e-38
0.02783816114 -0.3818744776 -0.2336230162 2.225624197e-38
0.09603711364 0.3019310462 0.4197175288 2.225624197e-38
-0.1621587065 -0.3628744908 0.1568587119 2.225624197e-38
0.03096115897 -0.682858268 -0.2714019899 2.225624197e-38
-0.032264797 0.3714219978 0.3299815913 2.225624197e-38
0.1332790877 0.1653961413 0.3749945599 2.225624197e-38
0.1712120613 0.1720851366 0.3488595781 2.225624197e-38
0.2765339879 -0.2954435378 -0.1482740756 2.225624197e-38
0.1641950662 0.05082222105 -0.06565513317 2.225624197e-38
0.1238290943 0.33945902 -0.2085690336 2.225624197e-38
-0.141402721 -0.3580374942 -0.04342014866 2.225624197e-38
-0.1761396968 -0.3615424918 -0.2345710155 2.225624197e-38
-0.07234376909 0.3761439945 -0.2210890249 2.225624197e-38
0.1717560609 0.3548320093 0.3353125876 2.225624197e-38
-0.04422678867 0.2424650876 0.03280279826 2.225624197e-38
0.1928220462 0.1809491304 -0.04578114701 2.225624197e-38
0.3819779145 -0.569422347 -0.3097899631 2.225624197e-38
-0.1552937113 0.2612090745 0.003090818951 2.225624197e-38
-0.1401187219 0.149985152 0.1893596892 2.225624197e-38
0.437237876 0.2599260754 -0.1384790825 2.225624197e-38
-0.06459777448 0.191560123 0.1874136906 2.225624197e-38
-0.09700775191 -0.1518006378 0.06669377465 2.225624197e-38
0.1082551051 0.06637521022 -0.07556312627 2.225624197e-38
0.1036371083 0.09788118827 0.1358607265 2.225624197e-38
0.02309016445 0.5582838676 0.08085476479 2.225624197e-38
-0.1799586941 0.2148301068 -0.09066011575 2.225624197e-38
-0.1752036974 0.2711990676 0.2067526771 2.225624197e-38
-0.2327556574 -0.2889415423 -0.166340063 2.225624197e-38
-0.1734286987 0.07575020369 0.1281237319 2.225624197e-38
0.0408161521 0.2527100804 0.3285085923 2.225624197e-38
-0.4159985297 -0.05680470399 -0.0101931718 2.225624197e-38
0.05432514269 0.6039378358 -0.0898771163 2.225624197e-38
-0.174406698 -0.5726683447 -0.1555860705 2.225624197e-38
0.2599279995 -0.2565505649 -0.1538610717 2.225624197e-38
-0.06407577484 -0.1435316436 0.1256727336 2.225624197e-38
-0.05799177908 0.5457758763 -0.04715214606 2.225624197e-38
-0.01631180811 -0.7490542219 -0.2747859875 2.225624197e-38
0.06032113852 0.6328608157 0.0600287793 2.225624197e-38
-0.4036765383 -0.05857470276 0.02244480547 2.225624197e-38
-0.3964815433 0.2930510523 0.01309181199 2.225624197e-38
0.1428030811 -0.2782225498 -0.03228115641 2.225624197e-38
0.3659959256 0.07479420435 0.07728376728 2.225624197e-38
-0.1156397389 -0.06994669484 -0.2092850331 2.225624197e-38
-0.2075416749 0.3262530292 0.2328526589 2.225624197e-38
0.2057670372 0.2923360528 -0.09405611339 2.225624197e-38
0.266423995 0.03035323531 0.02652680263 2.225624197e-38
0.1777890567 0.3080870419 0.313156603 2.225624197e-38
-0.1349217255 -0.3659284887 0.1787536966 2.225624197e-38
0.1105631035 0.2350820927 0.3794255568 2.225624197e-38
0.2976689732 0.1062641824 -0.2935569744 2.225624197e-38
0.1998260414 -0.3998734651 0.07078277181 2.225624197e-38
-0.2791356251 -0.3448885034 -0.1042171063 2.225624197e-38
-0.2254376625 -0.198959605 0.142323722 2.225624197e-38
-0.1999346802 -0.4037114624 -0.2448170084 2.225624197e-38
-0.06503677418 -0.2415655753 0.3200755982 2.225624197e-38
-0.0388647924 0.201623116 0.2602826398 2.225624197e-38
0.2277130219 0.2222751016 -0.1406430809 2.225624197e-38
-0.04315278942 0.1125551781 0.08927375893 2.225624197e-38
0.07597912761 -0.6004633254 -0.1431660792 2.225624197e-38
0.01501717007 0.4423339484 -0.1776630552 2.225624197e-38
0.2271140224 -0.2912895407 -0.1344840852 2.225624197e-38
0.2223000257 -0.07624669045 -0.1641720646 2.225624197e-38
-0.4306625195 0.2252160996 -0.01574316793 2.225624197e-38
0.1037241083 0.1185491739 -0.05676713936 2.225624197e-38
-0.4339265173 0.1419731576 -0.1674970622 2.225624197e-38
0.1351880864 0.4453599463 0.01355481166 2.225624197e-38
-0.01334981017 0.3008200469 -0.1120041009 2.225624197e-38
0.3642829268 -0.5659003494 -0.3394829425 2.225624197e-38
-0.2594996387 0.3431080175 -0.04446414793 2.225624197e-38
0.1178640984 0.1201221728 -0.06075313658 2.225624197e-38
0.2137250317 0.2245601 -0.06691913229 2.225624197e-38
0.267864994 0.1940691213 0.1626917078 2.225624197e-38
0.06030713853 0.1110031791 0.0706517719 2.225624197e-38
0.01939216702 0.3532020105 -0.09614411194 2.225624197e-38
0.3399959437 -0.3933954696 -0.1591290681 2.225624197e-38
-0.3225335948 -0.3529904977 -0.07916812376 2.225624197e-38
0.1093591044 0.3140200377 0.4116225344 2.225624197e-38
-0.1639397053 -0.5728093446 -0.01876816582 2.225624197e-38
-0.4135495314 0.1263761684 -0.2852339802 2.225624197e-38
-0.09313475461 0.3127950386 0.1863326913 2.225624197e-38
-0.2386936532 -0.3024005329 -0.200889039 2.225624197e-38
0.1388540838 0.1171171749 0.1380927249 2.225624197e-38
-0.1005067495 0.3482770139 0.1418547223 2.225624197e-38
-0.2343876562 -0.3423505051 -0.225242022 2.225624197e-38
0.1600560691 -0.1021346724 -0.187925048 2.225624197e-38
0.1444790799 0.4425639482 -0.01700116706 2.225624197e-38
-0.03119379775 -0.8129221774 -0.2146590294 2.225624197e-38
-0.01184481122 0.6466588061 -0.1363560839 2.225624197e-38
0.04763714735 0.5553398697 -0.08460711997 2.225624197e-38
-0.2616606372 0.0484552227 0.0595847796 2.225624197e-38
-0.1137257403 -0.03112972187 -0.07562112623 2.225624197e-38
0.2676249941 -0.6675542786 -0.3077399646 2.225624197e-38
0.02205816517 0.3773509936 0.3370005864 2.225624197e-38
0.0963821134 -0.5881723339 -0.1209770946 2.225624197e-38
0.01154917249 -0.07009769473 -0.07993312323 2.225624197e-38
0.2163990298 -0.5381013688 -0.05229414248 2.225624197e-38
-0.07867576468 -0.1533476368 0.0950607549 2.225624197e-38
-0.3299275897 -0.5246373782 -0.2040830368 2.225624197e-38
-0.2541186425 0.1131791776 -0.06060413669 2.225624197e-38
0.3816439147 -0.2567595647 -0.05595513993 2.225624197e-38
-0.2693946318 0.008825250299 0.287326621 2.225624197e-38
0.0412501518 0.04530822489 -0.2478980062 2.225624197e-38
-0.07528476704 0.254832079 -0.06125113624 2.225624197e-38
0.1804980548 0.3666800011 0.04986478637 2.225624197e-38
-0.03978479176 -0.7757902032 -0.243910009 2.225624197e-38
-0.2512886445 -0.5857163356 -0.2020230382 2.225624197e-38
-0.3264195921 0.1410721582 0.172458701 2.225624197e-38
-0.350999575 0.3267310289 0.03941579365 2.225624197e-38
-0.1478187165 -0.1776206198 -0.1881240479 2.225624197e-38
0.2158050302 0.1928971221 0.02114180638 2.225624197e-38
-0.02775080014 0.04835422277 -0.2541440019 2.225624197e-38
0.08472412152 -0.05186770743 -0.2251010221 2.225624197e-38
0.0560401415 0.1598401451 0.003692818532 2.225624197e-38
-0.4493955065 0.1608081444 -0.2135190302 2.225624197e-38
0.09487211445 0.2113151093 0.0521247848 2.225624197e-38
2.418051201e-05 -0.922661101 -0.3127029611 2.225624197e-38
0.1790550558 0.04669322393 0.3057216082 2.225624197e-38
-0.02070680505 -0.1920356098 0.3827085546 2.225624197e-38
-0.3142886006 0.09284419178 -0.1982180408 2.225624197e-38
0.365524926 -0.6076233204 -0.3108079624 2.225624197e-38
-0.1330057268 -0.1390346467 0.2979346136 2.225624197e-38
-0.2607466379 0.01856124352 0.2814806251 2.225624197e-38
-0.1565227105 0.2157071062 0.1434817212 2.225624197e-38
0.3030699695 -0.1411476453 0.1002897513 2.225624197e-38
-0.2137746706 0.2128631082 0.3321855897 2.225624197e-38
-0.03474079528 -0.6901282629 -0.2673849927 2.225624197e-38
0.007572175255 -0.9051661131 -0.2601979977 2.225624197e-38
0.2442480104 -0.05631970433 0.2351026574 2.225624197e-38
0.2119450329 0.2003001169 0.01180281288 2.225624197e-38
0.01545616976 -0.1053206702 0.3980885438 2.225624197e-38
-0.3064126061 -0.3853844751 -0.1413930804 2.225624197e-38
-0.326628592 0.09123219291 -0.1995820399 2.225624197e-38
0.3144629615 0.121204172 -0.005872174807 2.225624197e-38
-0.2825446227 0.005254252786 -0.2947639736 2.225624197e-38
0.379748916 -0.2060536 -0.1012641084 2.225624197e-38
-0.1271537309 -0.389855472 -0.06347613469 2.225624197e-38
0.1206720965 0.3858559877 -0.1657980634 2.225624197e-38
0.05051714535 -0.3477145014 0.2706236326 2.225624197e-38
-0.2156186693 0.1764901335 0.1210117368 2.225624197e-38
0.1234350946 0.2127121083 0.2367796562 2.225624197e-38
0.2378350149 0.3457940156 0.1140487417 2.225624197e-38
0.2987039725 0.1220051715 0.005147817518 2.225624197e-38
-0.2554596416 -0.01753673134 -0.3131769608 2.225624197e-38
-0.0779257652 0.2731050662 -0.2171640276 2.225624197e-38
-0.1603897078 -0.3763744814 -0.06021613696 2.225624197e-38
0.04094815201 -0.5499773605 0.02707480225 2.225624197e-38
0.01395117081 -0.5474283623 0.1316427294 2.225624197e-38
-0.1336617264 -0.3801224788 0.1482887178 2.225624197e-38
-0.1137797402 -0.4259224469 -0.223900023 2.225624197e-38
-0.1320517275 0.3454160159 -0.2063050352 2.225624197e-38
0.08886211864 -0.3761424816 -0.1650620639 2.225624197e-38
-0.333827587 0.1264921683 0.2000776818 2.225624197e-38
-0.1467997172 -0.3706484854 -0.05241214239 2.225624197e-38
-0.09404875397 -0.200394604 -0.2138710299 2.225624197e-38
0.1405410826 0.1736991355 -0.04652614649 2.225624197e-38
-0.1178057374 -0.3663724884 -0.03987815112 2.225624197e-38
0.1739780594 0.1766431334 -0.05345714167 2.225624197e-38
-0.0268038008 -0.174553622 0.377724558 2.225624197e-38
0.1866590505 -0.2938015389 0.1740616999 2.225624197e-38
-0.4447665097 0.1802551309 -0.09846511032 2.225624197e-38
-0.1426527201 -0.4236744485 -0.0944731131 2.225624197e-38
0.3280059521 0.0129862474 0.1993896822 2.225624197e-38
0.08993811789 0.6126728297 0.05665178165 2.225624197e-38
-0.2676016331 0.1069741819 0.1036457489 2.225624197e-38
0.1595640694 0.2665910708 0.2016936806 2.225624197e-38
-0.2960636133 -0.3475265015 -0.1421600799 2.225624197e-38
-0.09928875032 0.455793939 0.04539478949 2.225624197e-38
0.08003912478 -0.2513535685 -0.2222820241 2.225624197e-38
-0.2272166612 -0.3390075074 -0.07707212522 2.225624197e-38
0.1074901057 0.2387000902 0.2705606327 2.225624197e-38
0.1719480608 -0.5156753844 -0.123286093 2.225624197e-38
-0.1697897012 -0.2910605408 -0.1524240727 2.225624197e-38
0.2019770399 -0.5020113939 -0.2311000179 2.225624197e-38
0.1856690512 -0.4260364468 -0.154990071 2.225624197e-38
0.02816716091 0.633826815 -0.1315650873 2.225624197e-38
-0.2259976621 -0.1583346333 0.1631297075 2.225624197e-38
-0.0110178118 -0.2078525988 -0.2553550011 2.225624197e-38
0.2130910321 0.2111131094 0.3009626115 2.225624197e-38
-0.3034296081 0.3082700417 0.1111577437 2.225624197e-38
0.2271160224 0.2323230946 -0.1530040723 2.225624197e-38
-0.05732877954 0.2769800635 -0.1078631038 2.225624197e-38
-0.2546186421 0.1488911527 -0.03180315675 2.225624197e-38
-0.1149667394 0.1666311404 0.1034547491 2.225624197e-38
-0.02977579873 0.6661927925 0.005478817288 2.225624197e-38
0.1366910853 -0.2052116006 0.2739226303 2.225624197e-38
-0.2876236192 0.1251791693 0.001646819957 2.225624197e-38
-0.05577978062 0.2895190548 0.4500225077 2.225624197e-38
-0.2410716516 -0.1916836101 0.06805377371 2.225624197e-38
-0.3574815705 -0.01834573078 0.139356724 2.225624197e-38
-0.1952026835 0.004421253366 -0.02539016121 2.225624197e-38
-0.2296816595 -0.7030012539 -0.2584119989 2.225624197e-38
0.1988220421 -0.3143105246 -0.2311680179 2.225624197e-38
0.01195117221 -0.7959501892 -0.2741779879 2.225624197e-38
0.2454330096 -0.4586824241 -0.2571479998 2.225624197e-38
0.2856949816 0.03099323486 -0.1253370916 2.225624197e-38
0.1620630677 0.1717561368 0.004391818045 2.225624197e-38
-0.2863336201 0.02801423693 -0.1321970868 2.225624197e-38
-0.1279687303 -0.1369046482 -0.1905050462 2.225624197e-38
0.4224118863 0.1640611422 -0.04962814433 2.225624197e-38
0.0425351509 0.3087790414 0.03842279434 2.225624197e-38
0.1771820571 0.09273519186 -0.1691110611 2.225624197e-38
-0.06244177598 -0.3917074707 -0.2397780119 2.225624197e-38
0.07778212636 0.5938548428 -0.05515714048 2.225624197e-38
0.2986939725 0.1332251637 0.1199177376 2.225624197e-38
0.03842915376 -0.4117534568 0.2619946386 2.225624197e-38
0.07207113033 -0.1720106238 0.3401675842 2.225624197e-38
0.2483490076 -0.253541567 -0.1610220667 2.225624197e-38
0.3203689574 -0.3922304704 -0.2573719996 2.225624197e-38
-0.277739626 0.09159819265 -0.1020221078 2.225624197e-38
0.07605112756 -0.08373568524 0.1520477152 2.225624197e-38
0.3775209176 -0.2640675596 -0.0871521182 2.225624197e-38
0.01584816949 0.05762221631 0.4288095225 2.225624197e-38
0.008480174623 -0.7835451978 -0.172097059 2.225624197e-38
0.1039191082 -0.3879674733 -0.2636169953 2.225624197e-38
0.07941312522 -0.3415755057 0.23124466 2.225624197e-38
-0.3304755893 0.08063220029 0.02144280617 2.225624197e-38
0.0332111574 -0.7657682102 -0.1927470447 2.225624197e-38
-0.01998580555 0.607992833 -0.1069901044 2.225624197e-38
0.4481018684 0.2542720794 -0.1275050901 2.225624197e-38
-0.2875876192 -0.02299572754 0.2627626381 2.225624197e-38
-0.08738275861 0.2451930857 0.2713046322 2.225624197e-38
0.01269817169 0.2399170894 0.1037527488 2.225624197e-38
0.08349712238 0.6077038332 -0.04304014892 2.225624197e-38
0.1467790783 0.201633116 -0.04060315062 2.225624197e-38
-0.2197786664 -0.2096945975 -0.2129080306 2.225624197e-38
0.1461210788 -0.2012856034 -0.1963160422 2.225624197e-38
0.1145221008 0.1914501231 0.06403477651 2.225624197e-38
-0.1551307114 0.06881720852 -0.0542751411 2.225624197e-38
-0.1416327208 -0.1969236064 0.2652536364 2.225624197e-38
0.3001979715 -0.4394574375 -0.2834289815 2.225624197e-38
0.1088691047 0.421306963 0.0946217552 2.225624197e-38
0.08588912071 -0.3737914832 -0.09186611491 2.225624197e-38
-0.11412874 -0.4541014273 0.08209176393 2.225624197e-38
0.03599015546 0.4119799695 0.3411865835 2.225624197e-38
0.1869310503 0.2491510829 0.0186698081 2.225624197e-38
0.004748177222 0.07425220473 0.4378755161 2.225624197e-38
0.3914969079 -0.04770871033 -0.03280715605 2.225624197e-38
0.0447001494 0.06156421357 -0.2446820085 2.225624197e-38
0.2906319781 -0.3339785109 -0.09948210961 2.225624197e-38
0.0224351649 -0.2697465557 -0.2444910086 2.225624197e-38
0.005039177019 0.2137211076 0.2172476698 2.225624197e-38
-0.445788509 0.2381110906 -0.1095711026 2.225624197e-38
-0.1590277087 0.3159460364 -0.119089096 2.225624197e-38
-0.0414567906 -0.3405185064 -0.1382570826 2.225624197e-38
-0.1154427391 0.1352201623 0.3925075477 2.225624197e-38
-0.1879616886 0.398367979 0.1151517409 2.225624197e-38
-0.0006338190297 0.6054408348 0.07229377075 2.225624197e-38
-0.2276516609 0.2099871102 0.1412827227 2.225624197e-38
0.02750416137 -0.1973736061 0.3792895569 2.225624197e-38
-0.0374367934 0.2117851089 0.2768496283 2.225624197e-38
0.02634116218 0.2993970479 0.4694464942 2.225624197e-38
0.2541470035 -0.1351576494 0.1945626856 2.225624197e-38
-0.1561457107 0.3368420218 0.2429236519 2.225624197e-38
0.07755512651 -0.6246543085 -0.1783180547 2.225624197e-38
0.2673959943 -0.4195294514 -0.08978611636 2.225624197e-38
0.001854179237 0.714257759 -0.0225321632 2.225624197e-38
0.1525260743 0.01623724514 -0.1848300502 2.225624197e-38
0.1901560481 -0.5475283622 -0.2012230388 2.225624197e-38
-0.2968506127 0.3458320156 -0.03175715678 2.225624197e-38
0.1617920678 -0.3033485323 0.2005816814 2.225624197e-38
0.1046311077 -0.3118735263 -0.2366650141 2.225624197e-38
0.0570391408 0.3069870426 0.4532035055 2.225624197e-38
0.2169960294 -0.05123870787 -0.1697630607 2.225624197e-38
-0.2118836719 0.2625670736 0.3267705935 2.225624197e-38
0.1103351037 0.4932569129 0.04980078642 2.225624197e-38
-0.07621176639 -0.5256553775 0.05368778371 2.225624197e-38
-0.2884306186 -0.01379073395 -0.3347199458 2.225624197e-38
-0.3655465649 -0.104175671 0.0750947688 2.225624197e-38
-0.1601537079 0.3608330051 0.2680336344 2.225624197e-38
0.04517414907 0.3261630293 0.2935126167 2.225624197e-38
-0.3295915899 0.08896319449 0.03632279581 2.225624197e-38
-0.2707706309 -0.1130366648 -0.1552960707 2.225624197e-38
0.3857639119 -0.5505863601 -0.291300976 2.225624197e-38
-0.1518427137 0.2379570907 0.09302875631 2.225624197e-38
-0.1483827161 -0.07936268828 -0.02908315864 2.225624197e-38
0.2170740293 -0.4065134604 -0.0852861195 2.225624197e-38
0.09225811627 0.1765381335 0.3873475513 2.225624197e-38
0.2338210177 -0.01908873026 0.01825880839 2.225624197e-38
-0.381170554 0.0972771887 -0.3206229556 2.225624197e-38
-0.02629480116 0.2952040508 -0.03296115594 2.225624197e-38
-0.1274837307 0.3047200442 -0.08254312141 2.225624197e-38
0.06468413548 -0.02136772867 0.372010562 2.225624197e-38
0.1796050554 -0.3677864874 0.1200687375 2.225624197e-38
-0.08843075788 0.3063810431 0.4359735175 2.225624197e-38
-0.1273597308 -0.08801068226 0.1003057512 2.225624197e-38
-0.1848906907 0.1416141578 0.0982107527 2.225624197e-38
0.04779214724 0.3291660272 0.1923636871 2.225624197e-38
-0.2397636525 -0.2155715934 0.1028237495 2.225624197e-38
-0.193064685 -0.2138645946 0.1919726874 2.225624197e-38
-0.1783276953 -0.3858704748 -0.07051812978 2.225624197e-38
0.147146078 0.1618601437 0.1385777246 2.225624197e-38
-0.05864577863 -0.3786794798 -0.1614690664 2.225624197e-38
0.2885229796 -0.06364369923 0.1890966894 2.225624197e-38
-0.1716376999 0.2070951122 0.363423568 2.225624197e-38
-0.4024175392 -0.02141472864 -0.06947713051 2.225624197e-38
-0.1202237357 -0.6353433011 -0.0789721239 2.225624197e-38
-0.07743776554 0.121311172 0.4055815386 2.225624197e-38
0.3315399496 0.1253351692 0.0479557877 2.225624197e-38
0.06380613609 0.1065291823 0.4271625236 2.225624197e-38
0.1254550932 -0.2947365383 0.2390526546 2.225624197e-38
0.414249892 -0.01034773635 0.03269379833 2.225624197e-38
0.09045911753 0.03683823079 -0.221013025 2.225624197e-38
0.3273929525 -0.6290013055 -0.3310199484 2.225624197e-38
-0.02308280339 0.2056071132 0.2572826419 2.225624197e-38
-0.3214665956 -0.3140425248 0.01669980947 2.225624197e-38
-0.05291378262 0.0567842169 -0.06850913118 2.225624197e-38
-0.0960197526 -0.4538664275 0.1063047471 2.225624197e-38
0.1364480855 0.1587101459 -0.04832514524 2.225624197e-38
0.09769511249 0.009136250082 -0.09264611437 2.225624197e-38
0.06990713184 0.1230601707 0.02970680041 2.225624197e-38
0.2611459986 0.2967590498 0.1498327168 2.225624197e-38
0.4366388764 0.1972741191 -0.2254450219 2.225624197e-38
-0.253374643 -0.2711515547 0.1036097489 2.225624197e-38
-0.1166517382 0.2283070974 -0.03332915568 2.225624197e-38
0.2205650269 -0.2886705425 -0.1972060415 2.225624197e-38
0.02417316369 0.2109591095 0.4369195168 2.225624197e-38
0.2425090116 0.1465921543 -0.1682350617 2.225624197e-38
-0.3625825669 -0.02227572804 -0.05137714311 2.225624197e-38
-0.008930813251 -0.2404505761 0.3681325647 2.225624197e-38
-0.1521527135 -0.3291745143 0.1971206838 2.225624197e-38
-0.119919736 0.3181470349 0.3976315442 2.225624197e-38
-0.05573278066 0.1977891187 0.2548236436 2.225624197e-38
-0.06797877213 0.5868388477 -0.02203916355 2.225624197e-38
-0.0367207939 -0.2586375634 0.3362685869 2.225624197e-38
-0.1124577411 0.07095220703 0.3599215704 2.225624197e-38
-0.3859165507 0.01005924944 0.06954977266 2.225624197e-38
-0.1252847322 0.3047170442 0.09070675793 2.225624197e-38
-0.002862817477 0.4997149084 -0.123265093 2.225624197e-38
0.3721519213 0.1437881563 -0.04267314918 2.225624197e-38
0.1139661012 -0.6128723167 -0.01928216547 2.225624197e-38
-0.2766956268 -0.4197654512 -0.2748479875 2.225624197e-38
-0.1207817354 -0.03503571915 -0.200933039 2.225624197e-38
-0.06043777738 0.04704722368 0.1432857213 2.225624197e-38
-0.2644716353 -0.2257175863 0.09446175531 2.225624197e-38
0.1265320924 -0.2350485799 -0.2044530365 2.225624197e-38
0.2420780119 0.08940819418 -0.1571120695 2.225624197e-38
-0.3691785624 0.01862824347 -0.01919816553 2.225624197e-38
0.1390930837 -0.1492846396 0.03182979894 2.225624197e-38
-0.009130813112 0.3031520453 0.05726378122 2.225624197e-38
-0.3032216083 0.02762123721 -0.2750929873 2.225624197e-38
0.1274210918 0.2575220771 0.1671077047 2.225624197e-38
-0.09821775107 0.4898179153 0.0252728035 2.225624197e-38
-0.06636477325 0.3604200054 0.152357715 2.225624197e-38
0.04578514864 0.2459420852 -0.2317860175 2.225624197e-38
-0.09559775289 -0.5167313837 0.0723667707 2.225624197e-38
-0.2951726139 0.3575110075 0.04929978677 2.225624197e-38
0.3558299327 0.05358821912 0.1307257301 2.225624197e-38
0.02249016487 -0.6952112594 -0.2680319922 2.225624197e-38
0.2946159753 -0.5940153298 -0.2130630305 2.225624197e-38
0.09025311767 0.5681778607 -0.02823515923 2.225624197e-38
-0.3102356034 0.1139651771 -0.3154919592 2.225624197e-38
-0.1791656947 -0.4437264345 0.05583778221 2.225624197e-38
0.2121920327 -0.5756813426 -0.08512911961 2.225624197e-38
-0.2900516175 -0.353953497 0.01732680904 2.225624197e-38
0.07748612656 0.3934389824 0.3770895585 2.225624197e-38
-0.04131879069 -0.3112175268 -0.07630212575 2.225624197e-38
0.2552960027 0.2876730561 0.1571927116 2.225624197e-38
0.2080060357 0.1874801259 -0.07280812819 2.225624197e-38
0.3788929166 -0.5037483927 -0.3163859585 2.225624197e-38
0.3247009544 -0.2581125638 -0.09959110953 2.225624197e-38
-0.2766846268 0.2746210652 -0.1612280666 2.225624197e-38
0.3885839099 0.2190021039 0.0903197582 2.225624197e-38
0.1700630621 0.1935491216 -0.05275514215 2.225624197e-38
0.1640030663 0.3500140127 0.1338727279 2.225624197e-38
0.3013129707 -0.6522322893 -0.2574179996 2.225624197e-38
-0.2445496492 -0.1826116164 -0.1457310774 2.225624197e-38
-0.09901275051 0.1933221218 0.3869935516 2.225624197e-38
0.1850600516 0.2230541011 0.1462357193 2.225624197e-38
-0.1919366858 -0.4307104436 -0.2428110098 2.225624197e-38
-0.05776777924 -0.4759264121 0.1745946995 2.225624197e-38
