# .PCD v0.7 - Point Cloud Data file format
VERSION 0.7
FIELDS x y z rgb
SIZE 4 4 4 4
TYPE F F F F
COUNT 1 1 1 1
WIDTH 838
HEIGHT 1
VIEWPOINT 0 0 0 1 0 0 0
POINTS 838
DATA ascii
-0.1129547408 -0.3931474697 0.1633977073 7.144657548e-39
0.2081070356 -0.299439535 0.1520997152 7.144657548e-39
0.4669618553 0.1510751512 -0.1759910563 7.144657548e-39
0.3725299211 0.3240720307 0.02941680062 7.144657548e-39
-0.2957456135 -0.5445293643 -0.1859380494 7.144657548e-39
0.1149991004 0.264857072 0.3699305635 7.144657548e-39
0.2455650095 0.3665180012 0.0640407765 7.144657548e-39
0.1840010524 0.3331890244 -0.07085812955 7.144657548e-39
-0.09595875264 0.3396140199 0.1584627107 7.144657548e-39
-0.1860546899 0.3333890243 0.09522675478 7.144657548e-39
-0.02477680222 -0.1038326712 -0.251082004 7.144657548e-39
0.3566659321 0.3302460264 -0.04649214652 7.144657548e-39
-0.2334076569 -0.473243414 -0.02561116106 7.144657548e-39
0.2197890275 -0.4586414241 -0.2400090117 7.144657548e-39
0.1686090631 0.3091190412 0.113571742 7.144657548e-39
-0.2818976231 -0.6811002692 -0.2796909841 7.144657548e-39
-0.2123786716 -0.2300105834 -0.2196580259 7.144657548e-39
0.2396610136 0.141349158 -0.009574172228 7.144657548e-39
0.04558114878 0.5079139027 -0.1007421087 7.144657548e-39
0.002111179058 0.3594060061 0.1928196868 7.144657548e-39
0.1738800594 0.06131021375 0.3163936007 7.144657548e-39
0.3400009437 0.006055252228 0.1147207412 7.144657548e-39
0.171627061 -0.5654083498 -0.02582716091 7.144657548e-39
-0.2756616275 -0.07214469331 -0.15631407 7.144657548e-39
-0.1698937011 -0.2699675555 0.198236683 7.144657548e-39
0.2329290183 0.1672681399 -0.1716280594 7.144657548e-39
0.2121600328 -0.1446636428 0.2302786607 7.144657548e-39
0.3042889686 -0.6423722962 -0.3253549523 7.144657548e-39
0.2524700047 -0.3288945145 0.093472756 7.144657548e-39
-0.03738779343 -0.8114191784 -0.2390850124 7.144657548e-39
0.282146984 0.03906022924 -0.1461060771 7.144657548e-39
-0.06752877244 0.5630608643 -0.03186215671 7.144657548e-39
-0.00531481577 0.2307830957 -0.2541320019 7.144657548e-39
0.183140053 -0.06709369683 -0.1755800566 7.144657548e-39
0.1958350441 -0.07070969431 -0.172195059 7.144657548e-39
-0.3432815804 0.1201441728 0.07731976725 7.144657548e-39
-0.3512535748 -0.1443056431 -0.02678216024 7.144657548e-39
-0.2482556466 -0.2048956009 0.04547578943 7.144657548e-39
0.05785514023 -0.6623262823 -0.1659810633 7.144657548e-39
-0.1605547076 0.07181220643 -0.1784860546 7.144657548e-39
-0.1569167102 0.07019720756 -0.1802350534 7.144657548e-39
0.2725349907 -0.2955055377 -0.1407520809 7.144657548e-39
-0.2794706248 -0.2834195462 0.05429978329 7.144657548e-39
0.08122012396 -0.4503534299 0.1398307237 7.144657548e-39
0.1665400645 0.3894599852 0.2871316211 7.144657548e-39
0.2626769976 -0.4503184299 -0.2671529928 7.144657548e-39
0.2568140017 -0.453139428 -0.264067995 7.144657548e-39
0.09116611703 0.5716068583 0.01507281061 7.144657548e-39
0.2100460342 -0.4941773994 -0.01408716909 7.144657548e-39
-0.1662597037 -0.02688772483 0.3054606084 7.144657548e-39
0.2456600094 -0.3745454827 0.03492079678 7.144657548e-39
0.1962060439 0.09474619046 -0.1609840668 7.144657548e-39
0.3730769207 0.004414253371 0.08413176251 7.144657548e-39
0.2263270229 -0.1073166688 0.2332116587 7.144657548e-39
-0.08637875931 0.4115019698 -0.2098980327 7.144657548e-39
0.1315900889 -0.3359205096 0.1830196936 7.144657548e-39
0.2798009857 0.2458910852 -0.1700280605 7.144657548e-39
0.2020170398 -0.4500764301 0.01520281052 7.144657548e-39
-0.06814977201 -0.2643215595 0.2911676183 7.144657548e-39
-0.2781316258 0.10979718 -0.08826511742 7.144657548e-39
0.02544216281 -0.675639273 -0.05281514211 7.144657548e-39
0.08142912382 0.6010148379 -0.05245314236 7.144657548e-39
-0.3408465821 -0.2959625374 -0.01758616665 7.144657548e-39
-0.1566537104 0.3350780231 -0.07239212848 7.144657548e-39
-0.2708566308 0.3644510026 0.03384279753 7.144657548e-39
0.2423680117 0.1687681389 0.3066296075 7.144657548e-39
-0.2081376745 -0.3648514894 0.06516977572 7.144657548e-39
0.1318030887 0.3069210427 -0.2061240353 7.144657548e-39
-0.1346937257 0.3746139955 -0.1919730452 7.144657548e-39
0.02151116555 -0.2185805913 0.3598335705 7.144657548e-39
0.09484711447 -0.4223124494 0.1661207054 7.144657548e-39
0.3069359668 0.1188921736 0.03659779561 7.144657548e-39
-0.09273675488 0.1892381246 0.07876976624 7.144657548e-39
0.07361112926 -0.652721289 -0.01889616574 7.144657548e-39
-0.3941665449 0.07909920136 -0.2621809963 7.144657548e-39
-0.4566285014 0.1876091258 -0.2013930386 7.144657548e-39
0.1968690434 -0.2403825761 0.1771076978 7.144657548e-39
-0.01859980652 -0.6672992788 -0.1309810877 7.144657548e-39
-0.3350895861 0.1325711641 0.1775386975 7.144657548e-39
0.04241215099 0.6273998195 -0.1178140968 7.144657548e-39
-0.04566178767 -0.04658171111 -0.2446140085 7.144657548e-39
-0.2999166106 -0.1338186504 0.1070177466 7.144657548e-39
-0.2052146765 -0.04276271377 -0.3423139405 7.144657548e-39
0.270676992 -0.6326433029 -0.3070039651 7.144657548e-39
-0.04363578908 -0.6432912955 -0.08867211714 7.144657548e-39
-0.2836976219 -0.3736824833 -0.08199912179 7.144657548e-39
0.0913611169 -0.2464045719 0.2878976206 7.144657548e-39
-0.1828766921 0.2613870744 -0.09650111169 7.144657548e-39
-0.1220777344 0.4421379485 0.0261348029 7.144657548e-39
0.2316560192 -0.6386862987 -0.2398180119 7.144657548e-39
-0.1118177416 0.07317920548 0.3612655695 7.144657548e-39
-0.3014736095 -0.005142739973 -0.3343249461 7.144657548e-39
0.2065690367 0.1596601452 0.3279095927 7.144657548e-39
0.2249130239 0.302179046 0.1711697019 7.144657548e-39
-0.004686816207 -0.454571427 0.2448196506 7.144657548e-39
0.279243986 0.2753330647 -0.1471550764 7.144657548e-39
0.1509210754 -0.3954384681 -0.2248300223 7.144657548e-39
-0.0137418099 -0.6869882651 -0.2758389868 7.144657548e-39
-0.1584067091 -0.2375955781 -0.2076770343 7.144657548e-39
0.3393059442 0.1526461501 0.1187877384 7.144657548e-39
0.02913316024 -0.3438665041 0.2929386171 7.144657548e-39
0.09660411325 0.4512269422 -0.1264350908 7.144657548e-39
0.1954110444 0.1952611205 0.0626017775 7.144657548e-39
0.2851819819 0.1516551508 -0.2316550176 7.144657548e-39
0.1585900701 0.4151579673 -0.03008315794 7.144657548e-39
0.150016076 0.3578030072 0.105011748 7.144657548e-39
-0.09723275175 -0.4384434382 -0.1736680579 7.144657548e-39
0.266439995 0.09811118811 -0.1546100712 7.144657548e-39
0.1682400634 0.2833220591 0.04094779258 7.144657548e-39
0.1051011073 0.4984909093 0.05551978244 7.144657548e-39
0.04052015231 0.4212279631 -0.2234890232 7.144657548e-39
-0.08400576096 -0.2162495929 -0.2171410277 7.144657548e-39
-0.002078818023 0.6729027878 0.004552817933 7.144657548e-39
-0.06305477556 0.6113458307 -0.08124512231 7.144657548e-39
-0.0489207854 -0.6485562919 -0.2533820024 7.144657548e-39
0.08105112408 0.6428448087 -0.0241201621 7.144657548e-39
0.3599289299 0.2958300504 0.1044227484 7.144657548e-39
-0.2716226303 -0.3090915283 0.07363776982 7.144657548e-39
-0.1168477381 0.2955000506 0.008612815105 7.144657548e-39
-0.09043375649 -0.6088103195 -0.02291416294 7.144657548e-39
-0.2532206431 -0.4354584403 -0.2706939904 7.144657548e-39
-0.01979580568 -0.4778894107 -0.223830023 7.144657548e-39
0.01478417023 0.2488040832 0.3560675731 7.144657548e-39
-0.158654709 0.3360340224 -0.1586090684 7.144657548e-39
-0.02045280523 0.05482721826 -0.2551590012 7.144657548e-39
0.2150660307 0.1415871578 0.1461297193 7.144657548e-39
0.2685759935 -0.1892586117 0.1452677199 7.144657548e-39
-0.07238776906 0.5631468642 -0.01863916591 7.144657548e-39
0.1636410666 -0.4170094531 0.1056897475 7.144657548e-39
-0.1395757223 0.3286460276 -0.1182470965 7.144657548e-39
0.1608820685 -0.2682285567 -0.1313040874 7.144657548e-39
0.3024889699 -0.5806923391 -0.2060570354 7.144657548e-39
-0.2509686447 0.0257632385 -0.3540749323 7.144657548e-39
0.1650250656 0.3613970047 -0.03423815505 7.144657548e-39
-0.2201206662 -0.1121446655 0.2330136588 7.144657548e-39
0.2368270156 0.2027171153 0.1843006927 7.144657548e-39
-0.3526675739 0.05243521993 -0.262535996 7.144657548e-39
-0.1106477424 0.3626900038 0.110743744 7.144657548e-39
0.01276117164 0.6710277891 -0.1456480775 7.144657548e-39
0.09865111182 0.5444268773 -0.007626173585 7.144657548e-39
0.343964941 0.3277350282 -0.08566611923 7.144657548e-39
-0.3328785876 0.1523071504 -0.2947779736 7.144657548e-39
0.07910012544 -0.06194070042 -0.2283170199 7.144657548e-39
-0.2506286449 -0.16304963 0.05117778546 7.144657548e-39
0.372588921 -0.1304896527 0.4779304882 7.144657548e-39
0.3600089298 -0.5772013416 -0.2488170056 7.144657548e-39
0.1499860761 0.1871981261 0.3402255841 7.144657548e-39
0.4005969015 0.07856720173 -0.2277250203 7.144657548e-39
-0.1456117181 0.3775889935 0.01101681343 7.144657548e-39
-0.1502357148 0.3743899957 0.005424817325 7.144657548e-39
-0.3575295705 -0.08357168535 0.09070975793 7.144657548e-39
0.3604209295 -0.2757915515 -0.02404616215 7.144657548e-39
-0.1375217237 0.1917871229 0.2023586802 7.144657548e-39
0.376914918 -0.2800615485 -0.08430412018 7.144657548e-39
-0.2571026404 0.1908841235 0.1799906957 7.144657548e-39
-0.1089447436 0.3491190133 0.2881126204 7.144657548e-39
0.2339190176 0.1101991797 0.2929166171 7.144657548e-39
-0.2819176231 -0.1175356617 0.1598737098 7.144657548e-39
-0.1331047268 0.2766430638 0.1112257436 7.144657548e-39
0.213272032 -0.2953685378 -0.1533230721 7.144657548e-39
-0.3248515932 0.1062821824 0.09124875755 7.144657548e-39
0.06810913309 0.2738920657 -0.0894461166 7.144657548e-39
0.09650911331 0.3170500356 0.191178688 7.144657548e-39
-0.213143671 0.1365991613 0.1028067495 7.144657548e-39
-0.06444977458 -0.6820632685 -0.2081690339 7.144657548e-39
0.2318490191 0.2515000813 0.1955396849 7.144657548e-39
-0.3148376002 -0.3703144856 -0.2354350149 7.144657548e-39
-0.2552756417 -0.2941085387 -0.1647200642 7.144657548e-39
0.007138175557 0.2308940956 0.2962916147 7.144657548e-39
-0.2214456652 0.177264133 -0.07644112566 7.144657548e-39
0.02655316204 0.5619388651 -0.09703611131 7.144657548e-39
0.3372349457 -0.3786374798 -0.03920115159 7.144657548e-39
-0.09377475416 -0.1671376271 0.3155526013 7.144657548e-39
-0.1383337231 0.2821700599 -0.01784316647 7.144657548e-39
0.1955540443 -0.1892136118 -0.1978420411 7.144657548e-39
-0.1160567386 0.4330889548 -0.06857213114 7.144657548e-39
-0.06938677115 -0.6010553249 -0.1341750854 7.144657548e-39
0.2143250313 0.1989941179 0.00518881749 7.144657548e-39
-0.1310107282 -0.1941266084 -0.1957640426 7.144657548e-39
0.1116411028 0.3919369835 -0.1610030668 7.144657548e-39
-0.3015266095 0.1293781663 -0.3009029693 7.144657548e-39
-0.3800665548 0.2636190728 -0.1732010583 7.144657548e-39
-0.1062677455 -0.5482163617 0.0219708058 7.144657548e-39
0.3709349222 -0.1149876635 0.4590395014 7.144657548e-39
0.3689609236 -0.115647663 0.4599445008 7.144657548e-39
0.1407740825 0.1626781431 0.1977456834 7.144657548e-39
-0.007190814463 -0.5389233682 -0.2435310093 7.144657548e-39
0.1186270979 -0.4124534563 -0.1899120466 7.144657548e-39
0.1591820697 -0.2566135648 0.2202866677 7.144657548e-39
0.1483810772 -0.4714174152 0.04334679091 7.144657548e-39
0.2945749754 0.09476019045 -0.01783316648 7.144657548e-39
0.102705109 -0.4583074244 0.1032637492 7.144657548e-39
0.09707011292 0.3253550298 -0.2133770303 7.144657548e-39
-0.05008478459 -0.2611135617 0.318960599 7.144657548e-39
-0.08852975781 0.2508950817 -0.2135920301 7.144657548e-39
-0.1325417272 -0.4467114324 0.07197377098 7.144657548e-39
0.02048716626 -0.1905176109 -0.2503800045 7.144657548e-39
0.02304716448 -0.03865871663 -0.2562410004 7.144657548e-39
0.177324057 0.2711850676 0.02056280678 7.144657548e-39
-0.2624096367 0.1464451545 0.1195327379 7.144657548e-39
0.09042111755 -0.6299573048 -0.01494516849 7.144657548e-39
-0.3627405668 0.3083560417 -0.09085911562 7.144657548e-39
0.3034659692 -0.6847532666 -0.3117049618 7.144657548e-39
0.03700315476 0.4079659723 -0.2291310193 7.144657548e-39
0.02520716297 -0.04755971043 -0.2544590017 7.144657548e-39
-0.07127376983 0.1723211364 0.3960055453 7.144657548e-39
-0.05818377895 -0.3537994971 0.2458206499 7.144657548e-39
0.2866239809 -0.04477471237 0.4127155337 7.144657548e-39
-0.07866276469 0.2587770762 -0.2176290273 7.144657548e-39
-0.04378578898 0.4801089221 0.09842075256 7.144657548e-39
0.2401930132 0.2301310962 0.1921506873 7.144657548e-39
-0.06865077166 0.6167008269 0.04110479248 7.144657548e-39
-0.362506567 -0.04842470983 -0.05720813905 7.144657548e-39
0.005478176713 0.0915341927 0.006901816297 7.144657548e-39
0.3188089585 0.02920523611 0.2051166782 7.144657548e-39
-0.02095380488 0.1301431658 0.4530175056 7.144657548e-39
0.2186910282 -0.02528172595 -0.3474239369 7.144657548e-39
0.2594509998 -0.2929175395 0.08767676004 7.144657548e-39
-0.05916777826 0.4720339277 -0.1232330931 7.144657548e-39
-0.2807376239 0.3616340046 0.02465680393 7.144657548e-39
0.08155612373 0.2139161075 0.09007875837 7.144657548e-39
0.1568580713 0.3071350425 -0.19944204 7.144657548e-39
0.1121931024 0.1363511615 -0.208091034 7.144657548e-39
-0.3938265452 -0.1102696668 -0.1101411022 7.144657548e-39
0.08907711849 0.392558983 -0.2219800243 7.144657548e-39
-0.05457478146 0.194419121 0.2362826565 7.144657548e-39
0.3652189262 -0.03721571764 -0.0577141387 7.144657548e-39
0.3664189253 -0.0540667059 -0.06312813493 7.144657548e-39
0.2932469763 -0.5135223859 -0.2957689729 7.144657548e-39
0.2770899875 -0.1632306299 -0.1275310901 7.144657548e-39
-0.1766596964 0.375328995 0.08292776335 7.144657548e-39
-0.03593979444 -0.5465623629 -0.2318490174 7.144657548e-39
0.06722413371 0.332292025 0.189653689 7.144657548e-39
0.1364470855 0.2599020754 0.3483735785 7.144657548e-39
-0.08389376104 0.5011079074 -0.0159281678 7.144657548e-39
0.1401250829 0.2615460743 0.3465935797 7.144657548e-39
0.09313011567 0.5269838894 -0.02299816288 7.144657548e-39
-0.008211813752 0.5856208486 -0.09882111007 7.144657548e-39
0.02798916104 0.2946750512 0.3304885909 7.144657548e-39
0.174453059 -0.4981663966 -0.1489380752 7.144657548e-39
0.04395114992 -0.2266175857 -0.2356350148 7.144657548e-39
0.2594899998 -0.1926736094 0.1571097117 7.144657548e-39
-0.3055316067 -0.3725114841 -0.1541370715 7.144657548e-39
-0.3321385881 0.2210461025 0.1167937398 7.144657548e-39
0.1975930429 0.2363990918 -0.1001411092 7.144657548e-39
-0.06580977364 0.2351090927 -0.2239700229 7.144657548e-39
-0.332333588 -0.3986494659 -0.1113111014 7.144657548e-39
-0.0497787848 -0.4354524403 -0.2485330058 7.144657548e-39
-0.07783476526 -0.1750366216 0.3298195914 7.144657548e-39
-0.03917379219 0.508972902 -0.0842771202 7.144657548e-39
-0.1339937261 0.4175099657 -0.04583414697 7.144657548e-39
0.09226311627 -0.5052783916 -0.19942104 7.144657548e-39
-0.1676237027 0.243270087 0.02635880275 7.144657548e-39
-0.1934026848 -0.3633464905 0.08971475862 7.144657548e-39
0.03147815861 0.1925321224 0.4209485279 7.144657548e-39
0.08932911831 -0.3083285288 -0.2355790148 7.144657548e-39
0.05218214419 0.6974167707 -0.04237614938 7.144657548e-39
-0.1494577154 0.08912319437 -0.04982714419 7.144657548e-39
-0.009080813147 -0.6798312701 -0.1192480958 7.144657548e-39
-0.1814206931 -0.1994016047 0.1974096836 7.144657548e-39
-0.07822676499 -0.6028023237 -0.003916176169 7.144657548e-39
0.003478178106 -0.06587669767 0.412188534 7.144657548e-39
-0.2064286757 0.2201501031 -0.1039281065 7.144657548e-39
0.01513916998 -0.2267125857 0.3730095613 7.144657548e-39
-0.05403978183 0.2195821035 0.08852375945 7.144657548e-39
-0.2412316515 -0.5474903622 -0.1717300593 7.144657548e-39
-0.2169326684 -0.4197814512 0.02617280288 7.144657548e-39
0.08154412374 0.5676618611 0.04668278859 7.144657548e-39
-0.2687096323 0.134150163 -0.1193590958 7.144657548e-39
-0.3039526078 0.2358170922 -0.2079550341 7.144657548e-39
-0.1853516904 -0.3315355127 0.1514487156 7.144657548e-39
-0.2487606462 0.0004332561437 -0.2993519704 7.144657548e-39
-0.1176577375 0.2839380587 0.08401076259 7.144657548e-39
0.3148019613 -0.4666124186 -0.140533081 7.144657548e-39
-0.2181816675 0.1544491489 -0.03048015767 7.144657548e-39
0.2815419844 0.1125361781 0.04263079141 7.144657548e-39
0.06875813264 0.2616140742 0.1167447398 7.144657548e-39
-0.2322576577 0.00168725527 -0.3073379648 7.144657548e-39
-0.1302257288 0.2776440631 -0.2004760393 7.144657548e-39
0.1441850801 -0.04212871421 0.3154276014 7.144657548e-39
0.4582158614 0.2429570872 -0.1386390823 7.144657548e-39
-0.1498007151 -0.3448625034 0.1898416889 7.144657548e-39
-0.09596575263 -0.2831635463 0.2596046403 7.144657548e-39
0.4067878972 0.05715121664 -0.2996339702 7.144657548e-39
-0.03576079456 -0.5703363463 -0.2533890024 7.144657548e-39
-0.3541185728 -0.08156468675 0.09579875438 7.144657548e-39
0.03053715926 -0.2069135994 0.369138564 7.144657548e-39
0.03758415435 -0.2706305551 0.3396765845 7.144657548e-39
-0.1578317095 -0.6135253163 -0.09515411262 7.144657548e-39
-0.312187602 -0.4193014515 -0.1436830788 7.144657548e-39
-0.1879266886 0.2076501118 0.01558081025 7.144657548e-39
0.1571000711 0.3973699797 0.2578566415 7.144657548e-39
0.1915240471 -0.4815594082 -0.0006171784665 7.144657548e-39
-0.005804815428 0.3387540205 0.1923856871 7.144657548e-39
-0.2636006359 -0.1556106352 0.07851576642 7.144657548e-39
0.08253812304 0.4964479107 -0.06969413036 7.144657548e-39
0.05867313967 -0.3593204933 -0.2337770161 7.144657548e-39
0.03992815272 0.5418168791 -0.09111711544 7.144657548e-39
-0.3281285909 -0.01305673446 0.2021066803 7.144657548e-39
-0.2924066158 -0.2920925401 0.04857578727 7.144657548e-39
-0.01728380743 0.3497560129 -0.1395380817 7.144657548e-39
0.0989691116 0.3784109929 0.3623605687 7.144657548e-39
-0.03678679385 0.6567317991 -0.03291915597 7.144657548e-39
-0.1794216945 0.1080651812 -0.1656580635 7.144657548e-39
0.1770020573 -0.2374085782 0.2196816681 7.144657548e-39
0.1393520835 0.283511059 0.01920380773 7.144657548e-39
0.03324315738 -0.5159433842 0.1129517424 7.144657548e-39
-0.2256226623 -0.4189474518 0.01978480732 7.144657548e-39
0.1430380809 0.1752341344 0.0565707817 7.144657548e-39
-0.07166676956 -0.1650966286 -0.2286710196 7.144657548e-39
-0.1751096975 -0.5670183486 -0.1343370853 7.144657548e-39
0.3399329438 -0.0850766843 0.09529575473 7.144657548e-39
0.06344913634 -0.4439614344 0.1837206931 7.144657548e-39
-0.08091376312 -0.5354643706 0.04120179241 7.144657548e-39
-0.2733556291 -0.1482976403 0.06664377469 7.144657548e-39
0.04958914599 -0.6140373159 0.003731818505 7.144657548e-39
0.3911459081 -0.03016072255 0.03798979465 7.144657548e-39
0.2495730067 -0.3012775337 -0.1864050491 7.144657548e-39
0.1946840449 -0.06247770004 0.2756876291 7.144657548e-39
0.06260013693 0.4145109678 -0.2230200236 7.144657548e-39
-0.203175678 -0.0936876783 0.2636466375 7.144657548e-39
0.3218359564 -0.06939169523 0.420813528 7.144657548e-39
0.1112051031 -0.5224913797 0.05221478474 7.144657548e-39
0.4027569 -0.02708972469 0.01574581014 7.144657548e-39
-0.2626596365 0.1459201548 -0.1547220711 7.144657548e-39
-0.05417678174 0.6409048101 -0.06550513327 7.144657548e-39
-0.3372045846 0.02384923984 -0.2990149706 7.144657548e-39
0.1636360666 -0.1376906477 0.2749426296 7.144657548e-39
0.2196400276 -0.2672755574 -0.2219360243 7.144657548e-39
-0.09902075051 0.1202661727 -0.06090613648 7.144657548e-39
-0.4149945304 -0.02756972435 -0.02069316448 7.144657548e-39
-0.05137478369 -0.2125015956 0.3458485802 7.144657548e-39
0.09421511491 -0.2754925517 0.2756726291 7.144657548e-39
-0.04263978977 0.4982609094 0.09208875697 7.144657548e-39
-0.08134476282 0.3561870084 0.3121256037 7.144657548e-39
-0.06709177274 -0.4660864189 0.1442917206 7.144657548e-39
0.2381540147 0.2859260573 0.163796707 7.144657548e-39
-0.06756777241 -0.6654392801 -0.2247620224 7.144657548e-39
0.1429970809 0.3589760064 -0.1069451044 7.144657548e-39
0.06016713862 -0.4134524556 0.2013186809 7.144657548e-39
0.213276032 -0.1584106332 0.225578664 7.144657548e-39
-0.04240378994 0.2811690606 -0.1005161089 7.144657548e-39
-0.2567776406 -0.6128753167 -0.222362024 7.144657548e-39
0.028043161 -0.5039103926 0.1531587144 7.144657548e-39
-0.1291627295 -0.1355376492 0.3025756104 7.144657548e-39
-0.06254877591 0.3899109849 0.1243607345 7.144657548e-39
0.2955159747 -0.03292472062 0.3952665458 7.144657548e-39
0.04098715198 0.2631280732 0.02006380713 7.144657548e-39
-0.2078166747 -0.2972325365 0.1519767153 7.144657548e-39
0.07177613054 -0.422909449 -0.2544410017 7.144657548e-39
-0.2813186235 0.111265179 0.09400875563 7.144657548e-39
-0.02930879906 0.5427038785 -0.08213812169 7.144657548e-39
-0.00260081766 0.2498420824 0.05434178326 7.144657548e-39
-0.1545557118 -0.2960385374 0.181009695 7.144657548e-39
0.04793614714 -0.448795431 -0.2430430096 7.144657548e-39
-0.2858016204 0.04426622562 -0.1326720865 7.144657548e-39
-0.2524956436 -0.1638406294 0.1205347372 7.144657548e-39
0.1863990507 -0.4395434374 -0.2315100177 7.144657548e-39
-0.3407815821 0.1261911686 -0.1092671028 7.144657548e-39
0.3630899276 0.1391001596 -0.02829115919 7.144657548e-39
-0.2312986584 0.1919721227 -0.1726400587 7.144657548e-39
-0.1890486878 0.2367190916 -0.08102812246 7.144657548e-39
0.1138931012 -0.4378854386 -0.1647280642 7.144657548e-39
-0.1792486946 -0.4805614089 0.009681814361 7.144657548e-39
-0.4090445346 0.2551900787 -0.1594880678 7.144657548e-39
-0.3499365758 0.1000481868 0.1238067349 7.144657548e-39
0.07756412651 0.03465423231 0.3754955596 7.144657548e-39
-0.004301816475 -0.7447862248 -0.1381980826 7.144657548e-39
-0.1794766945 0.08644819624 -0.04257214925 7.144657548e-39
-0.1477917165 0.1454081552 0.3296475915 7.144657548e-39
-0.0749047673 -0.4267074464 0.1748406993 7.144657548e-39
-0.2520566439 0.1075401815 -0.159295068 7.144657548e-39
0.004069177695 0.3741699958 0.1718967014 7.144657548e-39
-0.2803556242 -0.4126154562 -0.1052421056 7.144657548e-39
-0.1714487001 0.2527960804 0.1084617456 7.144657548e-39
0.0152651699 0.2085781112 0.2409246533 7.144657548e-39
0.06208613729 0.297925049 0.06507177578 7.144657548e-39
-0.3428795807 -0.07067769433 0.14515972 7.144657548e-39
-0.1404287217 -0.03333172034 0.3187115991 7.144657548e-39
0.2308850197 0.2954790507 0.1269007327 7.144657548e-39
-0.402744539 0.2856470575 -0.08616911888 7.144657548e-39
-0.06895477145 -0.004220740615 0.3698705635 7.144657548e-39
0.440170874 0.2744970653 0.02227580559 7.144657548e-39
0.1613440682 -0.08796868229 -0.1869060487 7.144657548e-39
0.1698770622 0.3464130152 0.2478666485 7.144657548e-39
0.009414173972 -0.8166501748 -0.1906710461 7.144657548e-39
0.09210211638 -0.09694767603 0.3444515812 7.144657548e-39
-0.04171979041 0.3792599923 -0.1581220688 7.144657548e-39
-0.0881157581 -0.4063494605 -0.175087057 7.144657548e-39
0.3254379539 0.02491223909 -0.06914613074 7.144657548e-39
-0.05628778027 0.5938058429 -0.05976413727 7.144657548e-39
-0.4288165208 0.1229301708 -0.2234360233 7.144657548e-39
0.363969927 0.330830026 -0.01423016899 7.144657548e-39
0.2252430237 0.2798380615 0.2664456355 7.144657548e-39
-0.07667476607 0.3056830435 0.03579279618 7.144657548e-39
-0.3611895679 -0.3280555151 -0.08419612026 7.144657548e-39
0.096964113 0.2966350498 0.2259816637 7.144657548e-39
-0.05022778449 -0.3558084957 0.2649186366 7.144657548e-39
-0.2301446592 0.1809201304 0.1620217083 7.144657548e-39
-0.2639586356 -0.5339573717 -0.2957199729 7.144657548e-39
-0.1996216804 0.2284800973 0.1648677063 7.144657548e-39
0.2597219996 -0.150106639 -0.1776570552 7.144657548e-39
-0.1853486904 0.3618270044 0.08131076447 7.144657548e-39
0.1588240699 -0.2426355746 0.2312086601 7.144657548e-39
-0.03937779205 -0.05356970625 0.3866795518 7.144657548e-39
0.193218046 -0.2679345569 -0.2329240167 7.144657548e-39
0.2310270196 0.06677020994 0.2947416158 7.144657548e-39
-0.2451086488 -0.1262696556 0.2049796783 7.144657548e-39
-0.1683567022 0.1867711264 0.3767595587 7.144657548e-39
0.256285002 -0.2045356011 -0.146282077 7.144657548e-39
-0.2990006112 0.1295531662 0.2722226315 7.144657548e-39
0.2621819979 -0.1454896422 -0.1752670568 7.144657548e-39
0.3271079527 -0.4374794389 -0.2907269764 7.144657548e-39
-0.2869936196 0.08968819398 0.05357478379 7.144657548e-39
0.2114570333 0.2000901171 0.03899579394 7.144657548e-39
0.1609730684 0.2459490852 -0.04384814836 7.144657548e-39
0.03535215591 -0.2576065641 -0.2378300133 7.144657548e-39
0.2556170025 0.09906118745 0.2777786276 7.144657548e-39
0.1620400677 -0.4795614096 -0.1374040832 7.144657548e-39
-0.2552986417 -0.2443915733 0.1064917469 7.144657548e-39
0.09548211403 -0.1047426706 -0.2175110274 7.144657548e-39
-0.18586769 0.3536970101 0.1957256848 7.144657548e-39
0.08574612081 0.05245721991 0.3923485478 7.144657548e-39
0.1352850863 -0.4684664173 -0.216604028 7.144657548e-39
-0.08112476297 0.5822678509 0.06464977608 7.144657548e-39
-0.2560736411 0.1554171482 -0.1963950421 7.144657548e-39
0.203175039 0.2773860633 0.291665618 7.144657548e-39
0.06116613793 -0.3099845277 -0.2359130146 7.144657548e-39
0.461716859 0.243277087 -0.1099481023 7.144657548e-39
0.2164180298 0.2452340856 -0.1760470563 7.144657548e-39
0.368375924 0.05337121927 0.1119867431 7.144657548e-39
0.396988904 -0.1240406572 0.4736494912 7.144657548e-39
0.2131580321 0.1171651748 0.3101756051 7.144657548e-39
-0.1601927079 0.2569920775 -0.05646813957 7.144657548e-39
0.2273340222 0.2077831117 0.2917156179 7.144657548e-39
0.3143139616 0.2721970669 0.1426217218 7.144657548e-39
0.06608113451 0.3550860091 -0.1457120774 7.144657548e-39
0.1497640762 0.2326870944 -0.1934080442 7.144657548e-39
0.1862210508 0.3693999992 0.2937506165 7.144657548e-39
-0.1220907344 -0.60809832 -0.02596716081 7.144657548e-39
0.1823270535 -0.0589517025 0.07893576613 7.144657548e-39
0.1898820483 0.07910320135 -0.04530714734 7.144657548e-39
0.1281910912 0.4398809501 -0.07498012668 7.144657548e-39
-0.08235076212 -0.5981763269 -0.1194580957 7.144657548e-39
0.1810430544 0.3460930154 0.2290696616 7.144657548e-39
-0.3470995777 0.09649118924 -0.1931720444 7.144657548e-39
-0.02169980436 0.2904690541 0.000787820555 7.144657548e-39
0.1792300557 -0.2455935725 -0.220991025 7.144657548e-39
0.2846999822 -0.2774485503 -0.1447780781 7.144657548e-39
-0.2394546527 -0.1291436536 0.2090436755 7.144657548e-39
0.01547916975 0.3823279902 0.4519865063 7.144657548e-39
-0.1659217039 -0.3120415262 -0.2034090372 7.144657548e-39
0.2485170074 0.1936321216 0.1653877059 7.144657548e-39
0.2535630039 0.1996651174 0.1664027052 7.144657548e-39
0.1593030696 0.1084251809 0.3654915666 7.144657548e-39
-0.15722171 -0.2746825522 0.2073166767 7.144657548e-39
0.1947630449 0.2888560553 0.1944086857 7.144657548e-39
-0.1324867272 -0.4223834494 -0.2223100241 7.144657548e-39
-0.1604327077 -0.2796925488 0.1784426968 7.144657548e-39
0.2797079857 0.2746520652 0.1565117121 7.144657548e-39
-0.2532656431 -0.2992885351 -0.1829210515 7.144657548e-39
-0.2040276774 0.3094220409 0.1211677367 7.144657548e-39
0.1502300759 0.2526900805 0.1515727155 7.144657548e-39
-0.3950785443 -0.03462171944 0.05251578453 7.144657548e-39
0.2312490195 0.1955301203 0.1686117037 7.144657548e-39
-0.006550814909 0.3121390391 0.4688854945 7.144657548e-39
-0.1779426955 -0.2541985665 -0.2259930215 7.144657548e-39
0.1380250844 -0.3148315243 -0.2563260004 7.144657548e-39
0.04382215001 -0.4921824008 0.1539717139 7.144657548e-39
0.07088113116 -0.04428771271 -0.2323410171 7.144657548e-39
0.06602013455 0.6240358218 0.06642877484 7.144657548e-39
-0.2991566111 -0.6276743064 -0.3309299484 7.144657548e-39
0.01864816754 0.4332159547 -0.2206490252 7.144657548e-39
0.3555099329 -0.5960853284 -0.2604359975 7.144657548e-39
-0.06462477446 -0.6359793006 -0.2475090065 7.144657548e-39
-0.2449916488 0.2868750566 0.2142156719 7.144657548e-39
0.2065900366 0.3039810447 0.07542776857 7.144657548e-39
0.233426018 0.1721341366 0.0284288013 7.144657548e-39
-0.006245815121 -0.8633911422 -0.2942789739 7.144657548e-39
0.1818450539 -0.3889074727 0.09040175814 7.144657548e-39
-0.0114438115 0.6891897764 -0.1130941001 7.144657548e-39
-0.1957126832 0.3202790334 0.02364680463 7.144657548e-39
-0.3083946047 0.2317030951 -0.21375103 7.144657548e-39
-0.1601317079 0.2595340757 0.2079646763 7.144657548e-39
-0.1281407302 0.3806459913 0.06132277839 7.144657548e-39
-0.1050487463 0.4630579339 0.02621780284 7.144657548e-39
0.07206513034 -0.125736656 -0.2282860199 7.144657548e-39
-0.0372917935 -0.5060763911 0.09857675245 7.144657548e-39
0.1810440544 0.3204060333 -0.1401790813 7.144657548e-39
-0.05776777924 0.2106871097 0.1125317427 7.144657548e-39
-0.04802978602 -0.4925714005 0.1253807338 7.144657548e-39
0.1423190814 0.3952379812 -0.09357211373 7.144657548e-39
0.05022414555 -0.02323672737 0.3780795578 7.144657548e-39
0.2314060194 -0.5053993916 -0.2569799999 7.144657548e-39
-0.07474376741 -0.6207993112 0.004917817679 7.144657548e-39
-0.1053397461 -0.53640337 -0.1613360665 7.144657548e-39
-0.240451652 -0.717246244 -0.2876489786 7.144657548e-39
-0.1993596806 0.1836991285 -0.04631014664 7.144657548e-39
-0.3058406065 -0.3606184924 -0.1789780542 7.144657548e-39
0.09922511142 -0.4866974046 -0.2046540364 7.144657548e-39
0.4569848623 0.1236681703 -0.235259015 7.144657548e-39
-0.101207749 -0.3815594778 0.1987366827 7.144657548e-39
-0.184450691 0.04047222826 0.3328695893 7.144657548e-39
-0.2495286457 -0.4619464218 -0.05964913735 7.144657548e-39
0.07999912481 -0.2300625833 -0.2201290256 7.144657548e-39
-0.2959636133 -0.3049925311 -0.1253870916 7.144657548e-39
-0.03117279776 0.6236888221 0.06062877888 7.144657548e-39
-0.1760196969 -0.07465169156 0.01276481221 7.144657548e-39
-0.2414596513 -0.4405444367 -0.2658709937 7.144657548e-39
-0.03622679424 0.1300571659 -0.2481710061 7.144657548e-39
0.4080768963 -0.09989367398 -0.01479216859 7.144657548e-39
0.3353959469 0.2142261072 0.133646728 7.144657548e-39
-0.1834856917 0.2408730887 0.1900296888 7.144657548e-39
0.2107350338 -0.4595974235 -0.1093471027 7.144657548e-39
0.2814719845 -0.06505269825 -0.1528350725 7.144657548e-39
0.3581579311 -0.1552566354 -0.09216111471 7.144657548e-39
-0.005812815423 0.3609400051 -0.1487200753 7.144657548e-39
-0.1252767322 0.378279993 -0.2068170349 7.144657548e-39
-0.2198576663 -0.1782846194 -0.1587330683 7.144657548e-39
0.02882516045 0.358137007 0.3207135977 7.144657548e-39
-0.2526786435 -0.2214485893 0.1224567358 7.144657548e-39
0.07141713079 0.1692741386 0.02784580171 7.144657548e-39
0.09711211289 -0.1218586587 -0.2161680283 7.144657548e-39
0.2970249737 0.102548185 0.2417486527 7.144657548e-39
0.105536107 -0.3332835114 0.2116146737 7.144657548e-39
-0.3416895815 0.2090511108 -0.2473720066 7.144657548e-39
-0.2649626349 -0.17735462 -0.02905415866 7.144657548e-39
-0.02597680138 0.4805279218 -0.143410079 7.144657548e-39
0.3598089299 -0.2848515452 -0.08638311873 7.144657548e-39
-0.1211967351 0.3492950132 0.1315137295 7.144657548e-39
0.3908299083 -0.1933236089 -0.06441813403 7.144657548e-39
0.178811056 0.2664740709 0.3235065958 7.144657548e-39
0.01500617008 0.3531360105 0.1978346833 7.144657548e-39
0.3598299299 0.150002152 0.0491107869 7.144657548e-39
0.1312540891 0.2082381114 0.2252336642 7.144657548e-39
0.1274500918 -0.4289854448 0.1137027419 7.144657548e-39
0.2417050122 -0.1086856679 0.2191476685 7.144657548e-39
-0.2327866573 -0.375572482 -0.2423320101 7.144657548e-39
0.02729916152 0.4332199547 0.1269627327 7.144657548e-39
0.397057904 0.2817710602 0.0702107722 7.144657548e-39
0.05567814175 -0.0369767178 0.3773475583 7.144657548e-39
0.3002999714 -0.05625370438 0.4284795227 7.144657548e-39
0.08418812189 0.6273618195 -0.04357014855 7.144657548e-39
0.03558215575 0.2454330855 0.0650507758 7.144657548e-39
-0.09233075517 0.251895081 0.1492607171 7.144657548e-39
-0.352391574 0.2240851004 -0.2319560173 7.144657548e-39
-0.1683967022 -0.4942393993 -0.1234110929 7.144657548e-39
-0.1828046922 0.2096451104 0.04607478901 7.144657548e-39
-0.1508057144 0.07277620576 0.1343717275 7.144657548e-39
0.333817948 0.1217481717 -0.1076211039 7.144657548e-39
0.2279870217 0.2179651046 -0.118993096 7.144657548e-39
-0.4453135093 0.1487121529 -0.1985490406 7.144657548e-39
0.09087311724 -0.03785771719 0.3524415756 7.144657548e-39
0.05957013904 -0.03614471838 -0.2376210134 7.144657548e-39
-0.1228747339 0.3981679791 -0.08934111667 7.144657548e-39
0.140018083 -0.5274543762 -0.1484450755 7.144657548e-39
-0.3555905718 0.2905060541 -0.1397060816 7.144657548e-39
-0.0843897607 0.1465091544 -0.2248990223 7.144657548e-39
0.1225600952 0.4794759225 0.008860814932 7.144657548e-39
0.07538312803 0.3363810222 -0.1350830848 7.144657548e-39
0.0722601302 0.2778400629 -0.04170914985 7.144657548e-39
0.1080771053 0.3474690144 0.4024645408 7.144657548e-39
-0.07478176739 0.5262408899 0.03124279934 7.144657548e-39
-0.3139676008 0.1980601185 -0.2492990053 7.144657548e-39
-0.2455476485 -0.2141465944 0.08288476338 7.144657548e-39
0.2671319945 0.04538722483 -0.3334029467 7.144657548e-39
0.1135771014 0.303644045 0.2012986809 7.144657548e-39
0.1401960829 0.09809718812 -0.189330047 7.144657548e-39
0.1046041077 0.2884120556 0.3841345536 7.144657548e-39
-0.3392165832 0.1318231646 0.03100579951 7.144657548e-39
-0.2554116416 -0.1737256226 -0.02557516108 7.144657548e-39
-0.1039307471 -0.2265205858 -0.206631035 7.144657548e-39
0.049577146 -0.1000956738 0.379248557 7.144657548e-39
0.3035549691 0.08848719482 0.2355346571 7.144657548e-39
-0.2803336242 0.02188024121 -0.2800999838 7.144657548e-39
0.1176070986 -0.2380685777 -0.08762511787 7.144657548e-39
0.1732240599 0.3586630066 -0.02991615806 7.144657548e-39
-0.06177077645 0.6448668073 -0.02845415908 7.144657548e-39
0.1115461028 -0.2926705397 0.2534336446 7.144657548e-39
0.2490710071 0.1305571655 0.00896481486 7.144657548e-39
0.01644816907 0.6103038314 0.06954277267 7.144657548e-39
0.1350990864 0.4189229647 0.07432776934 7.144657548e-39
0.2768129877 -0.2380945777 0.1029727494 7.144657548e-39
0.1060771067 0.4978379097 -0.03701115312 7.144657548e-39
0.003232178278 -0.03419871974 0.1312647297 7.144657548e-39
-0.08397276099 -0.2722845539 -0.02417316206 7.144657548e-39
-0.3240605938 -0.003779740922 0.2193686683 7.144657548e-39
-0.01602980831 -0.903932114 -0.2657689938 7.144657548e-39
-0.06693777285 0.4851679185 -0.09328111393 7.144657548e-39
0.1778200567 -0.4094384584 -0.2347700154 7.144657548e-39
0.3267869529 -0.1399606461 -0.1008771086 7.144657548e-39
0.18745905 0.3338290239 0.3080276066 7.144657548e-39
0.001245179662 -0.7653592105 -0.2708249903 7.144657548e-39
0.1447360797 -0.3881174732 -0.2208930251 7.144657548e-39
0.02936016008 -0.8557601475 -0.2541900019 7.144657548e-39
0.05400014292 -0.2631775603 -0.2348090154 7.144657548e-39
-0.03322279633 -0.5056813914 0.1088507453 7.144657548e-39
-0.3980015423 0.1633911426 -0.04671814636 7.144657548e-39
0.1493200765 0.3389530204 -0.1229210933 7.144657548e-39
-0.08056476336 0.4315829559 -0.1336230858 7.144657548e-39
-0.07730076563 0.4297359572 -0.1377800829 7.144657548e-39
-0.3870545499 -0.1065676693 -0.1042581063 7.144657548e-39
-0.2952076139 -0.3489735005 -0.0814021222 7.144657548e-39
-0.1574007098 0.3708819981 0.02938680064 7.144657548e-39
0.02317016439 -0.08129568693 -0.2557300008 7.144657548e-39
-0.2651926348 -0.6503202906 -0.2493870052 7.144657548e-39
0.3096789648 0.289296055 0.136526726 7.144657548e-39
0.1616560679 0.358226007 0.1007597509 7.144657548e-39
0.07566012783 0.5352068837 -0.05235014244 7.144657548e-39
-0.1215027348 0.2625600736 -0.02050516462 7.144657548e-39
-0.05829377887 0.122725171 -0.2376980133 7.144657548e-39
0.00218117901 -0.8719031363 -0.297081972 7.144657548e-39
-0.05112878386 0.4970709103 -0.07561612623 7.144657548e-39
0.1444520799 -0.03216372115 0.3181625995 7.144657548e-39
0.351048936 0.1243861698 -0.295585973 7.144657548e-39
-0.1211637351 -0.10565367 -0.1938280439 7.144657548e-39
-0.1693807015 0.2870880565 -0.1168970975 7.144657548e-39
-0.03254279681 -0.2454895726 0.3424145826 7.144657548e-39
0.0520231443 -0.2452355728 0.3414935833 7.144657548e-39
-0.02495780209 0.3670750008 0.1647287064 7.144657548e-39
-0.1503357148 -0.3952524683 -0.2223050241 7.144657548e-39
0.06251313699 -0.26351156 -0.2317400175 7.144657548e-39
0.09569111388 0.3774849935 0.364811567 7.144657548e-39
-0.0298197987 0.533339885 -0.08349812074 7.144657548e-39
0.3003959713 0.09050019342 -0.3108939624 7.144657548e-39
0.009682173786 0.05594421748 -0.01585516785 7.144657548e-39
-0.4604974988 0.2021481157 -0.1155080984 7.144657548e-39
-0.1891306877 -0.4072594599 0.05953677964 7.144657548e-39
0.2971249736 0.08746119553 -0.3120359616 7.144657548e-39
0.2109740336 -0.2107355968 -0.2171760276 7.144657548e-39
-0.1656817041 -0.190317611 0.2105516745 7.144657548e-39
-0.2540486425 -0.6863792655 -0.274146988 7.144657548e-39
0.3657139258 -0.1494306395 0.02052880681 7.144657548e-39
0.2466140088 0.03627323118 -0.1568350697 7.144657548e-39
-0.3544515726 -0.4326724422 -0.2387410126 7.144657548e-39
0.1656580652 -0.517673383 -0.1250320918 7.144657548e-39
0.3016179705 0.2417260881 -0.1921750451 7.144657548e-39
-0.1849486907 0.1635351425 0.1635887072 7.144657548e-39
0.04031215245 0.3861549875 -0.1706200601 7.144657548e-39
0.1936180457 0.2944060514 -0.1830720514 7.144657548e-39
0.3254399539 -0.3914524709 -0.1353500846 7.144657548e-39
0.211776033 0.2522500808 -0.1811810527 7.144657548e-39
-0.1277107305 0.09976718696 -0.196600042 7.144657548e-39
0.05451714256 0.3617720045 -0.1519100731 7.144657548e-39
0.008532174586 -0.2748965521 0.3665125658 7.144657548e-39
0.07617312748 -0.05060870831 -0.2301140186 7.144657548e-39
0.3332919484 -0.4194584514 -0.1452790777 7.144657548e-39
0.1017811096 -0.6073353206 -0.0131971697 7.144657548e-39
0.3344639476 -0.3789794796 -0.1643420644 7.144657548e-39
0.2730659903 -0.1016166728 0.1874046906 7.144657548e-39
0.2229660252 0.006565251873 0.3369205865 7.144657548e-39
-0.3645075656 0.306540043 0.05394578353 7.144657548e-39
-0.03647879407 0.3038920448 -0.2293490192 7.144657548e-39
0.4264898835 0.1584761461 -0.06823513137 7.144657548e-39
0.218996028 -0.5581103549 -0.1934360442 7.144657548e-39
-0.2827486225 0.009858249579 -0.1440330786 7.144657548e-39
-0.1074337446 0.01202524807 -0.2102550325 7.144657548e-39
-0.1957056832 -0.2746265523 0.1706477023 7.144657548e-39
0.1202590968 -0.158737633 0.04751578801 7.144657548e-39
0.2588880002 -0.4089684587 -0.0895961165 7.144657548e-39
-0.4289815207 0.1171871748 -0.2627299959 7.144657548e-39
-0.2473176472 0.280571061 0.2590466407 7.144657548e-39
0.2833549832 -0.4240374482 -0.2714679898 7.144657548e-39
-0.1344037259 0.2516070812 0.1060997472 7.144657548e-39
-0.1563537106 -0.3417105056 0.1866816911 7.144657548e-39
-0.05335178231 -0.4239164483 0.1846436925 7.144657548e-39
-0.2798546246 -0.348336501 0.02119280634 7.144657548e-39
-0.02778780012 -0.2651475589 -0.2399040118 7.144657548e-39
-0.08200276236 0.3641970028 -0.2176880273 7.144657548e-39
0.1014011099 0.02333824019 0.3569875725 7.144657548e-39
-0.1556577111 0.2423860876 0.1613217087 7.144657548e-39
0.1522700745 0.2550460788 -0.1961260423 7.144657548e-39
0.08447712169 0.6087358325 0.01942580757 7.144657548e-39
-0.1920036857 -0.03113972187 -0.1711670597 7.144657548e-39
0.1703860619 -0.3243885176 0.1591127103 7.144657548e-39
0.2125060325 -0.09765467554 0.2503326468 7.144657548e-39
-0.2236046637 0.04877222248 -0.1555330706 7.144657548e-39
0.3291419513 0.1046621836 0.1973396837 7.144657548e-39
0.2087290352 0.03076923502 0.3292745918 7.144657548e-39
0.03847415373 0.4884589163 -0.1395200817 7.144657548e-39
0.01565016963 -0.8799541307 -0.2436340092 7.144657548e-39
-0.2230906641 0.1388201598 0.05367478372 7.144657548e-39
0.03216415813 -0.1031526717 0.3875725512 7.144657548e-39
0.2984009727 0.2035561147 0.2115236738 7.144657548e-39
0.139962083 -0.4894074027 -0.198054041 7.144657548e-39
0.1711620613 -0.2484385705 -0.2176250273 7.144657548e-39
-0.3199715966 -0.3547884965 -0.2113710317 7.144657548e-39
0.1676110638 0.1852951274 0.1957146848 7.144657548e-39
-0.2647186351 -0.1478446406 -0.1662390631 7.144657548e-39
0.2497280066 -0.2602745623 0.115081741 7.144657548e-39
-0.1547897117 -0.3707614853 -0.2505550044 7.144657548e-39
-0.03104479785 0.4182799651 0.3441845814 7.144657548e-39
0.088338119 0.2100581101 0.08541176162 7.144657548e-39
-0.07251276897 0.5452358767 -0.02272716307 7.144657548e-39
0.3369759458 0.09459319056 0.06229077772 7.144657548e-39
0.2678969939 0.1391611595 -0.08405312036 7.144657548e-39
0.007541175277 0.3628210038 0.3283895924 7.144657548e-39
0.307971966 0.1062161825 0.1103407443 7.144657548e-39
0.4205538876 0.2915350534 -0.02706216005 7.144657548e-39
0.2451700098 -0.2063125999 -0.1941110437 7.144657548e-39
0.02017916647 -0.7787822012 -0.2653569941 7.144657548e-39
-0.3051746069 -0.2747705522 0.02142380618 7.144657548e-39
-0.2667746337 0.1996301174 0.1807786952 7.144657548e-39
-0.3141386007 -0.5159303842 -0.1814840525 7.144657548e-39
0.1123551023 0.4993779086 -0.007925173377 7.144657548e-39
-0.1456037181 0.3207120331 -0.2020410382 7.144657548e-39
-0.01244281081 0.4277519585 -0.2241170228 7.144657548e-39
-0.005334815756 0.5283698885 0.09572475443 7.144657548e-39
0.08049912446 -0.4065514604 -0.1312630875 7.144657548e-39
0.001840179247 -0.6595922842 -0.07371712755 7.144657548e-39
0.07213513029 -0.2150545938 0.327472593 7.144657548e-39
0.08525812115 -0.3231515185 0.2364456564 7.144657548e-39
0.05362214318 0.3298470267 -0.2231470235 7.144657548e-39
0.1624530674 -0.5778233411 -0.03415615511 7.144657548e-39
0.02139316563 0.4846139189 0.1065787469 7.144657548e-39
-0.1766466964 0.2913830535 -0.1083761034 7.144657548e-39
-0.2594066388 0.1139171771 -0.06396913434 7.144657548e-39
0.07615412749 0.3707239982 0.4018335412 7.144657548e-39
0.02563416268 -0.1953126075 0.3815105554 7.144657548e-39
0.160109069 0.3856459879 0.0126428123 7.144657548e-39
-0.00901881319 0.6391818113 -0.1384840824 7.144657548e-39
0.348240938 0.1436001564 -0.2815339828 7.144657548e-39
-0.03149279754 -0.6886292639 -0.2694629912 7.144657548e-39
-0.02748380033 -0.6270753068 -0.2695729911 7.144657548e-39
0.01541316979 -0.6341293019 -0.106169105 7.144657548e-39
-0.04708078668 -0.6378022993 -0.2592869983 7.144657548e-39
0.1102681037 0.05302821951 -0.2089790334 7.144657548e-39
-0.194470684 0.05410521876 0.3233215959 7.144657548e-39
0.08055912442 -0.5594893539 -0.1885990475 7.144657548e-39
0.3283519518 0.1041151839 0.103568749 7.144657548e-39
0.0003001803198 0.4247249606 0.4810534861 7.144657548e-39
-0.2575276401 -0.1373426479 0.1807296952 7.144657548e-39
-0.3418205814 -0.104141671 0.1229117355 7.144657548e-39
0.1271920919 -0.1445786429 0.007965815556 7.144657548e-39
0.04300015058 0.4272739589 -0.1710950597 7.144657548e-39
0.00383217786 -0.5332763721 0.1561077124 7.144657548e-39
0.1080741053 -0.3378155083 -0.1653090638 7.144657548e-39
0.4046418987 0.2947300512 -0.09716411123 7.144657548e-39
0.03285515765 0.2516240812 0.04617278895 7.144657548e-39
0.2876599802 -0.01661273198 -0.130561088 7.144657548e-39
-0.2481306467 -0.3962264676 0.01605780992 7.144657548e-39
-0.1862156898 -0.5678673481 -0.2194070261 7.144657548e-39
0.1147771006 0.2300460962 -0.02204016355 7.144657548e-39
0.08340812244 0.3617890045 0.1543317136 7.144657548e-39
-0.2770146265 -0.6616422827 -0.3119599616 7.144657548e-39
-0.3225285948 0.1232951706 0.06495077587 7.144657548e-39
0.02395016385 0.4929089132 0.09942475186 7.144657548e-39
0.1549420726 -0.04506071217 -0.1860750493 7.144657548e-39
-0.096879752 -0.06779269634 -0.2131580304 7.144657548e-39
0.01089917294 -0.2020116029 -0.2536840022 7.144657548e-39
0.2916919774 0.05239121996 0.2426026521 7.144657548e-39
-0.05975377785 0.373935996 0.1470057187 7.144657548e-39
0.247791008 -0.2687695564 0.1197147377 7.144657548e-39
0.1625960673 0.3067670428 -0.1972390415 7.144657548e-39
-0.3200995965 0.3224080319 -0.0937611136 7.144657548e-39
0.3275679524 -0.6662402795 -0.3140849601 7.144657548e-39
0.2178740288 -0.4776214109 -0.008629172886 7.144657548e-39
0.05045214539 0.1110801791 -0.2435730093 7.144657548e-39
0.06043513844 -0.6468052931 -0.1572090694 7.144657548e-39
0.2694069929 -0.3213855197 0.05238578462 7.144657548e-39
0.2957479746 -0.04104871497 0.3887475504 7.144657548e-39
0.05175614448 0.3554300089 0.4358055176 7.144657548e-39
0.2716269914 -0.3806744784 -0.0861431189 7.144657548e-39
-0.3119096022 0.3428260177 -0.02441916189 7.144657548e-39
-0.004310816469 -0.9430480868 -0.3130189609 7.144657548e-39
-0.06395177493 0.6025968368 -0.09287411421 7.144657548e-39
-0.06536377395 0.5955328417 -0.09610911196 7.144657548e-39
0.0583331399 0.6176428263 0.06446277621 7.144657548e-39
-0.2090526739 -0.174508622 -0.1760950563 7.144657548e-39
0.01949616695 -0.3236615181 0.3430275822 7.144657548e-39
-0.03734279346 -0.3670354879 -0.153436072 7.144657548e-39
0.3519309354 0.1305921655 -0.006736174205 7.144657548e-39
0.3577629314 -0.4009704643 -0.2360160145 7.144657548e-39
-0.01509280896 -0.8547691482 -0.2846769806 7.144657548e-39
0.4811828454 0.1817941298 -0.1733460582 7.144657548e-39
0.1042341079 -0.3470095019 0.1985156828 7.144657548e-39
0.2532480042 0.06319521243 0.2752006294 7.144657548e-39
-0.0677227723 0.3469460148 -0.1025011075 7.144657548e-39
0.1418450817 0.2284980973 0.2335236585 7.144657548e-39
-0.1556147111 -0.1490906397 0.2717976318 7.144657548e-39
-0.06646477318 0.5268598895 -0.03540615424 7.144657548e-39
-0.07039477044 -0.2033696019 0.3296275915 7.144657548e-39
0.2753129888 0.04567122464 0.2561496427 7.144657548e-39
0.1436960805 0.365362002 0.354821574 7.144657548e-39
0.1434420806 0.3635600032 0.3546185741 7.144657548e-39
0.117033099 -0.1102986667 0.3212425974 7.144657548e-39
0.259242 0.01102824876 -0.1585850684 7.144657548e-39
-0.1211517351 0.3708479982 0.0870157605 7.144657548e-39
-0.03893079236 0.4077189725 -0.2288170195 7.144657548e-39
-0.03275679666 -0.3705394855 0.2663106356 7.144657548e-39
-0.02017580542 -0.6728772749 -0.2733659885 7.144657548e-39
0.09688811305 0.573600857 -0.004668175645 7.144657548e-39
0.3069299668 0.09246219205 0.06631677492 7.144657548e-39
0.3624849281 0.3320200252 0.01284181216 7.144657548e-39
0.1542270731 0.3287250275 -0.2031910374 7.144657548e-39
0.1798510553 -0.2852685449 0.1699137028 7.144657548e-39
-0.1288517297 -0.4692264168 0.04979578642 7.144657548e-39
0.1267480923 0.4650589325 -0.03017815788 7.144657548e-39
0.05539014195 0.402693976 -0.1733160582 7.144657548e-39
0.2407020129 0.1584241461 0.09342375604 7.144657548e-39
-0.2589966391 -0.1872246132 -0.0020051775 7.144657548e-39
0.09074711733 -0.1633356298 0.01673780945 7.144657548e-39
0.08295812275 0.2149641067 0.08363976285 7.144657548e-39
0.1181380983 -0.04346271328 -0.2040650368 7.144657548e-39
0.174456059 0.04937522206 -0.06050313676 7.144657548e-39
0.05269014383 0.2813820605 -0.0732161279 7.144657548e-39
0.2471130084 -0.6804022697 -0.2518220035 7.144657548e-39
0.193093046 -0.2629555604 -0.2307770182 7.144657548e-39
-0.1910906864 -0.1345076499 0.2476226486 7.144657548e-39
0.2502390062 -0.3356035098 0.06868077327 7.144657548e-39
-0.2339756565 -0.3297995139 0.08791275988 7.144657548e-39
0.09389311514 0.3534560103 0.419448529 7.144657548e-39
-0.2874236193 0.01037824922 -0.1267760906 7.144657548e-39
0.1360720858 -0.1642516292 -0.1938870439 7.144657548e-39
0.338232945 0.03262623372 -0.03098215732 7.144657548e-39
0.3228029557 0.2628350734 0.1402777234 7.144657548e-39
-0.03188179727 0.6977807705 -0.08090212255 7.144657548e-39
0.141454082 -0.3571854948 -0.2053150359 7.144657548e-39
-0.2416586512 0.2392980898 0.1933516864 7.144657548e-39
0.2751269889 0.06846120876 -0.09294711416 7.144657548e-39
0.003212178292 0.636667813 -0.1243930923 7.144657548e-39
-0.4318595187 0.1631861428 -0.1035441068 7.144657548e-39
0.2597149996 -0.4794304096 -0.1130491002 7.144657548e-39
0.095530114 0.3600250057 0.1498467167 7.144657548e-39
0.4293448815 0.1085261809 -0.1988570404 7.144657548e-39
-0.06897977143 0.1170581749 0.123652735 7.144657548e-39
-2.681945247e-05 0.4339699542 0.4594045011 7.144657548e-39
0.2551950028 -0.02366972707 0.2745246299 7.144657548e-39
0.1934250458 -0.5301093744 -0.01430316893 7.144657548e-39
-0.2336036568 -0.1898836113 0.09684075366 7.144657548e-39
0.326666953 -0.1490686397 0.07392076962 7.144657548e-39
0.007113175575 -0.6533122885 -0.08213612169 7.144657548e-39
0.2650529959 -0.1808026176 -0.1381090827 7.144657548e-39
0.2337800177 0.2966660498 0.1642147067 7.144657548e-39
0.06361213623 0.3651220022 0.1601947095 7.144657548e-39
-0.188782688 0.3384070208 -0.0116201708 7.144657548e-39
0.1866530505 0.2506750819 -0.189374047 7.144657548e-39
0.125743093 -0.5673693484 -0.1263630909 7.144657548e-39
